ply
format ascii 1.0
element vertex 2574
property float x
property float y
property float z
property uchar red
property uchar green
property uchar blue
end_header
3.78987 -0.918248 6.8635
131 163 178
3.81841 -0.91926 6.87106
140 177 185
3.82538 -0.919767 6.87484
139 176 184
3.83237 -0.920274 6.87864
139 176 184
3.83513 -0.919767 6.87484
139 175 189
3.84213 -0.920274 6.87864
140 177 196
3.84276 -0.91926 6.87106
140 180 206
3.86164 -0.920274 6.87864
142 186 221
3.7974 -0.903825 6.75569
149 195 231
3.80219 -0.903825 6.75569
157 205 241
3.80698 -0.903825 6.75569
165 215 248
3.81384 -0.904315 6.75935
171 221 254
3.8207 -0.904805 6.76301
171 221 254
3.82135 -0.903825 6.75569
177 226 255
3.82614 -0.903825 6.75569
178 224 255
3.83301 -0.904315 6.75935
177 221 255
3.84739 -0.904315 6.75935
167 204 248
3.85218 -0.904315 6.75935
125 150 204
3.85906 -0.904805 6.76301
60 77 131
2.05167 -0.98087 7.29291
167 207 209
2.05804 -0.981444 7.29718
169 212 221
2.06442 -0.982018 7.30145
169 212 221
2.18044 -0.997196 7.4143
36 62 77
2.187 -0.997789 7.41871
47 75 87
2.20937 -0.991303 7.37048
108 146 157
2.2159 -0.991889 7.37484
127 165 176
2.22244 -0.992476 7.37921
128 164 176
2.22899 -0.993064 7.38357
116 150 162
2.23555 -0.993652 7.38795
116 150 162
2.26309 -0.994241 7.39233
33 56 70
2.26967 -0.99483 7.39671
52 72 83
2.32127 -0.998978 7.42754
138 172 181
2.32792 -0.999573 7.43197
137 173 185
2.33458 -1.00017 7.4364
138 176 189
2.33846 -0.999573 7.43197
142 179 195
2.34512 -1.00017 7.4364
143 180 199
2.3518 -1.00077 7.44084
139 174 196
2.35567 -1.00017 7.4364
109 143 170
2.36235 -1.00077 7.44084
65 99 127
2.37187 -1.00256 7.45418
27 56 86
2.53045 -1.00677 7.48549
146 182 194
2.53728 -1.00738 7.48999
146 182 196
2.53802 -1.00556 7.47652
141 177 193
2.54484 -1.00617 7.48101
138 173 192
2.55015 -1.00617 7.48101
135 168 185
2.55699 -1.00677 7.48549
133 166 183
2.56383 -1.00738 7.48999
140 171 189
2.58663 -1.00798 7.49449
149 182 189
2.5935 -1.00859 7.499
151 184 191
2.60038 -1.00919 7.50351
151 184 189
2.8633 -1.02523 7.62274
129 163 165
2.87046 -1.02586 7.6274
142 176 185
2.87763 -1.02649 7.63207
143 179 195
2.8848 -1.02711 7.63674
143 179 195
2.88845 -1.02649 7.63207
131 167 189
2.89563 -1.02711 7.63674
118 155 181
2.89927 -1.02649 7.63207
111 148 175
2.90646 -1.02711 7.63674
108 145 172
2.91366 -1.02774 7.64142
107 147 173
2.86154 -1.00376 7.4631
129 167 190
2.86855 -1.00436 7.46757
129 167 190
2.87557 -1.00496 7.47204
138 176 199
2.88259 -1.00556 7.47652
141 177 201
2.9462 -1.00919 7.50351
161 200 231
2.9533 -1.0098 7.50803
162 198 230
2.9604 -1.01041 7.51255
156 193 222
2.97464 -1.01163 7.52161
111 146 174
2.98177 -1.01224 7.52615
111 146 174
2.97081 -0.999573 7.43197
96 124 136
2.97785 -1.00017 7.4364
100 127 136
2.9849 -1.00077 7.44084
101 126 131
2.99197 -1.00136 7.44528
101 126 131
3.03799 -1.00436 7.46757
137 157 156
3.0451 -1.00496 7.47204
144 163 167
3.05223 -1.00556 7.47652
144 163 167
3.05937 -1.00617 7.48101
152 172 179
3.061 -1.00496 7.47204
155 180 187
3.06813 -1.00556 7.47652
158 185 196
3.07344 -1.00556 7.47652
158 187 201
3.08058 -1.00617 7.48101
153 186 201
3.08774 -1.00677 7.48549
147 184 200
3.0949 -1.00738 7.48999
147 184 200
3.10022 -1.00738 7.48999
140 179 194
3.10739 -1.00798 7.49449
138 180 192
3.15027 -1.0098 7.50803
144 170 193
3.15749 -1.01041 7.51255
141 167 190
3.1773 -1.01163 7.52161
141 172 190
3.18455 -1.01224 7.52615
143 174 192
3.13875 -0.996012 7.40549
139 171 186
3.14587 -0.996604 7.40989
139 171 186
3.153 -0.997196 7.4143
130 162 175
3.16013 -0.997789 7.41871
125 157 168
3.17294 -1.00017 7.4364
122 155 162
3.1364 -0.983746 7.31429
114 145 147
3.14343 -0.984323 7.31859
114 145 147
3.17497 -0.986059 7.33149
116 144 148
3.18016 -0.986059 7.33149
128 153 158
3.18724 -0.986639 7.3358
134 157 165
3.19432 -0.987219 7.34012
134 157 165
3.2014 -0.987801 7.34444
140 163 171
3.20661 -0.987801 7.34444
140 165 172
3.21371 -0.988383 7.34877
141 168 177
3.21703 -0.987801 7.34444
148 177 185
3.22413 -0.988383 7.34877
156 186 197
3.22554 -0.987219 7.34012
167 199 210
3.23265 -0.987801 7.34444
167 199 210
3.23977 -0.988383 7.34877
173 206 221
3.24689 -0.988966 7.3531
172 208 222
3.2521 -0.988966 7.3531
171 204 219
3.26445 -0.989549 7.35744
150 180 191
3.2716 -0.990133 7.36178
139 168 176
3.27876 -0.990718 7.36613
139 168 176
3.28592 -0.991303 7.37048
137 161 171
3.29115 -0.991303 7.37048
133 155 166
3.29832 -0.991889 7.37484
130 154 166
3.3284 -0.993064 7.38357
145 173 184
3.33561 -0.993652 7.38795
129 158 166
3.31079 -0.983169 7.31001
102 131 135
3.31792 -0.983746 7.31429
99 127 130
3.32505 -0.984323 7.31859
105 133 136
3.3322 -0.984901 7.32288
105 133 136
3.34974 -0.98548 7.32719
117 142 147
3.36408 -0.986639 7.3358
115 142 149
3.3673 -0.986059 7.33149
117 142 149
3.37449 -0.986639 7.3358
117 142 149
3.38168 -0.987219 7.34012
110 135 140
3.38888 -0.987801 7.34444
102 127 132
3.39608 -0.988383 7.34877
92 119 126
3.3722 -0.969532 7.20861
135 176 208
3.37731 -0.969532 7.20861
146 186 221
3.38438 -0.970092 7.21278
146 186 221
3.39145 -0.970654 7.21695
154 194 230
3.39461 -0.970092 7.21278
160 198 235
3.40169 -0.970654 7.21695
164 202 239
3.40681 -0.970654 7.21695
168 204 240
3.4139 -0.971216 7.22113
165 199 234
3.421 -0.971778 7.22531
159 192 225
3.42811 -0.972342 7.2295
159 192 225
3.43323 -0.972342 7.2295
154 187 218
3.44035 -0.972905 7.23369
160 189 219
3.44349 -0.972342 7.2295
167 197 225
3.45061 -0.972905 7.23369
164 192 216
3.45775 -0.97347 7.23789
148 175 194
3.46489 -0.974035 7.2421
148 175 194
3.43133 -0.96175 7.15075
107 131 143
3.4474 -0.963407 7.16307
96 121 125
3.45446 -0.96396 7.16719
102 127 131
3.4697 -0.96396 7.16719
118 147 145
3.47678 -0.964515 7.17131
123 152 150
3.50826 -0.966181 7.1837
128 158 160
3.51538 -0.966738 7.18784
128 156 159
3.52047 -0.966738 7.18784
126 154 157
3.5276 -0.967295 7.19198
128 153 157
3.53474 -0.967854 7.19613
128 154 155
3.54189 -0.968412 7.20029
128 154 155
3.54699 -0.968412 7.20029
127 151 155
3.55415 -0.968972 7.20445
124 149 153
3.56643 -0.969532 7.20861
115 143 147
3.59614 -0.970654 7.21695
105 142 160
3.60334 -0.971216 7.22113
111 147 169
3.6208 -0.971778 7.22531
110 149 188
3.62802 -0.972342 7.2295
116 157 201
3.63315 -0.972342 7.2295
123 166 211
3.64551 -0.972905 7.23369
148 192 239
3.65276 -0.97347 7.23789
148 192 239
3.57694 -0.951926 7.07771
155 202 246
3.59105 -0.953008 7.08575
174 224 255
3.59608 -0.953008 7.08575
181 232 255
3.57744 -0.940188 6.99044
124 161 180
3.58441 -0.940716 6.99436
117 150 167
3.59138 -0.941244 6.99828
117 150 167
3.59836 -0.941772 7.00221
119 148 162
3.60333 -0.941772 7.00221
123 149 162
3.61032 -0.942301 7.00615
125 149 159
3.61326 -0.941772 7.00221
129 152 160
3.6372 -0.942831 7.01008
136 155 162
3.64217 -0.942831 7.01008
134 154 163
3.64919 -0.943361 7.01403
133 156 164
3.65417 -0.943361 7.01403
130 153 161
3.6612 -0.943892 7.01797
130 153 161
3.66824 -0.944423 7.02192
129 156 163
3.6782 -0.944423 7.02192
130 159 165
3.6811 -0.943892 7.01797
129 160 165
3.68815 -0.944423 7.02192
131 161 169
3.69521 -0.944955 7.02588
131 161 169
3.70228 -0.945488 7.02984
132 161 175
3.70727 -0.945488 7.02984
133 162 178
3.71434 -0.946021 7.0338
136 161 181
3.71933 -0.946021 7.0338
133 160 181
3.72642 -0.946555 7.03777
133 160 181
3.73352 -0.947089 7.04175
129 157 178
3.74062 -0.947624 7.04572
122 154 175
3.74562 -0.947624 7.04572
116 152 176
3.75273 -0.94816 7.04971
115 155 180
3.75986 -0.948696 7.05369
131 173 198
3.76699 -0.949233 7.05768
131 173 198
3.72664 -0.932869 6.93602
190 246 255
3.73363 -0.933388 6.93987
190 246 255
3.73855 -0.933388 6.93987
191 250 255
3.74556 -0.933907 6.94374
191 252 255
3.74839 -0.933388 6.93987
186 250 249
3.7554 -0.933907 6.94374
188 252 251
3.76242 -0.934428 6.94761
188 252 251
3.76525 -0.933907 6.94374
192 252 253
3.77227 -0.934428 6.94761
197 255 255
3.7751 -0.933907 6.94374
201 255 255
3.77792 -0.933388 6.93987
202 255 255
3.78494 -0.933907 6.94374
201 251 255
3.79198 -0.934428 6.94761
201 251 255
3.79479 -0.933907 6.94374
190 236 252
3.80183 -0.934428 6.94761
170 209 238
3.76274 -0.923623 6.86727
145 181 217
3.76347 -0.922607 6.85972
131 160 200
3.7704 -0.923115 6.8635
131 160 200
3.78014 -0.923115 6.8635
128 158 186
3.78709 -0.923623 6.86727
132 160 181
3.81841 -0.924132 6.87106
140 177 185
3.82538 -0.924641 6.87484
139 176 184
3.83237 -0.925151 6.87864
139 176 184
3.83513 -0.924641 6.87484
139 175 189
3.84213 -0.925151 6.87864
140 177 196
3.84276 -0.924132 6.87106
140 180 206
3.86164 -0.925151 6.87864
142 186 221
3.7974 -0.908615 6.75569
149 195 231
3.80219 -0.908615 6.75569
157 205 241
3.80698 -0.908615 6.75569
165 215 248
3.81384 -0.909107 6.75935
165 215 248
3.8207 -0.9096 6.76301
171 221 254
3.82135 -0.908615 6.75569
177 226 255
3.82614 -0.908615 6.75569
178 224 255
3.83301 -0.909107 6.75935
177 221 255
3.84739 -0.909107 6.75935
167 204 248
3.85218 -0.909107 6.75935
125 150 204
3.85906 -0.9096 6.76301
60 77 131
2.05167 -0.986041 7.29291
178 217 216
2.05804 -0.986618 7.29718
174 214 222
2.06442 -0.987195 7.30145
174 214 222
2.07081 -0.987773 7.30573
172 214 228
2.08239 -0.988352 7.31001
142 188 203
2.0888 -0.988932 7.31429
121 169 183
2.18044 -1.00245 7.4143
24 50 65
2.187 -1.00305 7.41871
33 62 78
2.20937 -0.996529 7.37048
107 145 164
2.2159 -0.997118 7.37484
122 160 179
2.22244 -0.997708 7.37921
120 157 176
2.22899 -0.998299 7.38357
103 139 161
2.23555 -0.99889 7.38795
103 139 161
2.24212 -0.999482 7.39233
70 105 127
2.30409 -1.00365 7.42312
131 162 167
2.31073 -1.00424 7.42754
138 171 178
2.31738 -1.00484 7.43197
138 171 178
2.32127 -1.00424 7.42754
136 173 181
2.32792 -1.00484 7.43197
140 178 189
2.33846 -1.00484 7.43197
143 184 202
2.34512 -1.00544 7.4364
146 187 209
2.3518 -1.00604 7.44084
146 186 212
2.35848 -1.00664 7.44528
132 171 200
2.36517 -1.00724 7.44973
107 146 179
2.37187 -1.00785 7.45418
72 106 141
2.52893 -1.01147 7.48101
144 180 192
2.53576 -1.01208 7.48549
142 180 193
2.53802 -1.01087 7.47652
138 175 191
2.54484 -1.01147 7.48101
135 172 188
2.55015 -1.01147 7.48101
132 167 186
2.55699 -1.01208 7.48549
129 164 183
2.56383 -1.01269 7.48999
137 170 189
2.5935 -1.0139 7.499
153 186 195
2.60038 -1.01451 7.50351
155 188 195
2.8633 -1.03064 7.62274
141 171 171
2.87046 -1.03127 7.6274
143 174 179
2.87763 -1.0319 7.63207
141 173 186
2.8848 -1.03253 7.63674
141 173 186
2.88845 -1.0319 7.63207
134 167 186
2.89563 -1.03253 7.63674
124 159 181
2.90646 -1.03253 7.63674
110 146 170
2.91366 -1.03316 7.64142
105 143 166
2.86154 -1.00905 7.4631
131 167 189
2.86855 -1.00966 7.46757
131 167 189
2.87557 -1.01026 7.47204
141 177 199
2.88259 -1.01087 7.47652
143 181 202
2.88963 -1.01147 7.48101
144 182 205
2.9462 -1.01451 7.50351
161 200 231
2.9533 -1.01513 7.50803
162 198 230
2.9604 -1.01574 7.51255
156 193 222
2.97464 -1.01696 7.52161
111 146 174
2.98177 -1.01758 7.52615
111 146 174
3.03981 -1.01026 7.47204
139 157 157
3.04693 -1.01087 7.47652
139 157 157
3.05406 -1.01147 7.48101
146 165 169
3.0612 -1.01208 7.48549
154 175 180
3.06813 -1.01087 7.47652
158 185 196
3.10022 -1.01269 7.48999
140 179 194
3.15027 -1.01513 7.50803
145 170 192
3.15749 -1.01574 7.51255
143 168 190
3.16473 -1.01635 7.51708
141 169 190
3.17006 -1.01635 7.51708
141 172 190
3.1773 -1.01696 7.52161
141 172 190
3.18455 -1.01758 7.52615
141 173 188
3.13875 -1.00126 7.40549
134 166 181
3.14587 -1.00186 7.40989
134 166 181
3.153 -1.00245 7.4143
125 157 170
3.16013 -1.00305 7.41871
126 159 168
3.17105 -1.00484 7.43197
129 162 169
3.17822 -1.00544 7.4364
132 165 170
3.18729 -1.00664 7.44528
130 164 166
3.15751 -0.990675 7.32719
110 140 142
3.16085 -0.990093 7.32288
115 145 147
3.16791 -0.990675 7.32719
120 148 152
3.17497 -0.991257 7.33149
127 155 159
3.18016 -0.991257 7.33149
132 157 164
3.18724 -0.99184 7.3358
132 157 164
3.19432 -0.992424 7.34012
136 159 167
3.2014 -0.993008 7.34444
141 164 172
3.20661 -0.993008 7.34444
143 166 174
3.21371 -0.993593 7.34877
147 171 181
3.21703 -0.993008 7.34444
152 179 190
3.22413 -0.993593 7.34877
158 188 199
3.24689 -0.994179 7.3531
172 208 224
3.2521 -0.994179 7.3531
173 206 223
3.26445 -0.994766 7.35744
151 180 194
3.2716 -0.995353 7.36178
139 165 178
3.27876 -0.995941 7.36613
139 165 178
3.29115 -0.996529 7.37048
131 155 167
3.29832 -0.997118 7.37484
129 152 168
3.30355 -0.997118 7.37484
132 158 175
3.31074 -0.997708 7.37921
137 164 181
3.31793 -0.998299 7.38357
142 171 185
3.32514 -0.99889 7.38795
142 171 185
3.3284 -0.998299 7.38357
144 174 185
3.33561 -0.99889 7.38795
132 162 172
3.30367 -0.987773 7.30573
113 142 148
3.31079 -0.988352 7.31001
100 129 133
3.31792 -0.988932 7.31429
97 125 128
3.32505 -0.989512 7.31859
101 129 130
3.3322 -0.990093 7.32288
101 129 130
3.35691 -0.991257 7.33149
115 140 144
3.36408 -0.99184 7.3358
110 137 144
3.37127 -0.992424 7.34012
109 136 143
3.37846 -0.993008 7.34444
109 136 143
3.38367 -0.993008 7.34444
110 135 140
3.39087 -0.993593 7.34877
102 127 132
3.39809 -0.994179 7.3531
92 119 126
3.38753 -0.974643 7.20861
152 191 230
3.39461 -0.975207 7.21278
160 199 238
3.40169 -0.975771 7.21695
165 203 242
3.40681 -0.975771 7.21695
165 203 240
3.4139 -0.976336 7.22113
160 198 234
3.421 -0.976901 7.22531
160 198 234
3.42811 -0.977468 7.2295
158 192 227
3.43323 -0.977468 7.2295
154 189 221
3.44035 -0.978034 7.23369
161 192 223
3.44349 -0.977468 7.2295
169 198 228
3.45061 -0.978034 7.23369
165 192 219
3.45775 -0.978602 7.23789
148 175 196
3.46489 -0.97917 7.2421
148 175 196
3.47406 -0.980309 7.25052
126 152 169
3.43133 -0.96682 7.15075
108 132 144
3.43837 -0.967375 7.15485
105 130 137
3.4474 -0.968486 7.16307
105 130 134
3.45446 -0.969042 7.16719
111 137 138
3.46153 -0.969599 7.17131
111 137 138
3.46861 -0.970157 7.17543
120 146 145
3.4717 -0.969599 7.17131
125 151 150
3.47878 -0.970157 7.17543
125 154 152
3.48588 -0.970716 7.17956
129 155 154
3.48896 -0.970157 7.17543
127 155 156
3.49606 -0.970716 7.17956
125 153 154
3.50317 -0.971275 7.1837
125 153 154
3.51538 -0.971834 7.18784
126 154 155
3.5225 -0.972395 7.19198
130 156 157
3.5276 -0.972395 7.19198
133 159 160
3.53474 -0.972956 7.19613
133 159 160
3.54189 -0.973518 7.20029
133 159 160
3.55415 -0.97408 7.20445
122 146 148
3.56132 -0.974643 7.20861
116 140 144
3.56643 -0.974643 7.20861
110 138 142
3.5736 -0.975207 7.21278
107 136 142
3.58079 -0.975771 7.21695
107 136 142
3.58798 -0.976336 7.22113
99 132 141
3.60334 -0.976336 7.22113
110 148 171
3.61055 -0.976901 7.22531
111 150 179
3.61777 -0.977468 7.2295
111 150 179
3.63526 -0.978034 7.23369
130 172 222
3.6425 -0.978602 7.23789
140 183 234
3.64551 -0.978034 7.23369
147 190 241
3.65276 -0.978602 7.23789
147 190 241
3.66002 -0.97917 7.2421
147 193 242
3.58399 -0.957488 7.08173
154 203 246
3.59105 -0.958032 7.08575
162 211 251
3.59608 -0.958032 7.08575
172 222 255
3.60315 -0.958576 7.08978
174 223 253
3.61023 -0.959121 7.09381
174 223 253
3.6132 -0.958576 7.08978
170 217 243
3.57945 -0.945675 6.99436
122 157 176
3.58441 -0.945675 6.99436
115 148 163
3.59138 -0.946206 6.99828
115 148 163
3.59836 -0.946737 7.00221
116 145 159
3.60333 -0.946737 7.00221
120 146 159
3.61032 -0.947269 7.00615
123 145 158
3.61326 -0.946737 7.00221
128 148 157
3.62026 -0.947269 7.00615
128 148 155
3.62726 -0.947801 7.01008
128 148 155
3.63427 -0.948334 7.01403
131 150 157
3.63925 -0.948334 7.01403
135 154 161
3.64627 -0.948868 7.01797
134 154 161
3.65125 -0.948868 7.01797
133 156 162
3.65828 -0.949402 7.02192
130 155 160
3.66532 -0.949937 7.02588
130 155 160
3.68027 -0.949937 7.02588
132 161 165
3.68733 -0.950472 7.02984
133 164 169
3.70228 -0.950472 7.02984
137 165 176
3.70727 -0.950472 7.02984
137 165 179
3.71434 -0.951008 7.0338
141 164 180
3.71933 -0.951008 7.0338
137 160 178
3.72642 -0.951545 7.03777
137 160 178
3.73352 -0.952082 7.04175
129 156 175
3.74062 -0.95262 7.04572
121 149 170
3.74562 -0.95262 7.04572
108 140 161
3.75273 -0.953158 7.04971
99 135 159
3.77199 -0.954237 7.05768
126 167 197
3.7168 -0.937787 6.93602
168 215 245
3.72379 -0.938308 6.93987
180 231 255
3.73079 -0.938831 6.94374
180 231 255
3.73363 -0.938308 6.93987
182 239 255
3.73855 -0.938308 6.93987
188 247 255
3.74556 -0.938831 6.94374
188 251 255
3.74839 -0.938308 6.93987
184 249 251
3.7554 -0.938831 6.94374
185 251 250
3.76242 -0.939354 6.94761
185 251 250
3.76525 -0.938831 6.94374
188 249 252
3.77227 -0.939354 6.94761
194 253 255
3.7751 -0.938831 6.94374
198 255 255
3.77792 -0.938308 6.93987
201 254 255
3.78494 -0.938831 6.94374
201 254 255
3.79198 -0.939354 6.94761
197 245 255
3.78077 -0.93415 6.90912
163 199 231
3.76347 -0.927471 6.85972
129 157 197
3.7704 -0.927982 6.8635
129 157 197
3.77735 -0.928492 6.86727
130 156 193
3.78014 -0.927982 6.8635
130 157 186
3.78709 -0.928492 6.86727
133 161 182
3.80589 -0.929516 6.87484
137 169 180
3.80866 -0.929004 6.87106
139 172 187
3.81564 -0.929516 6.87484
143 177 189
3.81841 -0.929004 6.87106
141 178 184
3.82538 -0.929516 6.87484
139 178 183
3.83237 -0.930029 6.87864
139 178 183
3.83725 -0.930029 6.87864
136 174 183
3.84425 -0.930542 6.88243
134 173 190
3.847 -0.930029 6.87864
134 175 197
3.85401 -0.930542 6.88243
134 178 205
3.86102 -0.931056 6.88623
134 178 205
3.8659 -0.931056 6.88623
139 184 217
3.87292 -0.93157 6.89004
143 192 225
3.80219 -0.913405 6.75569
151 201 236
3.82614 -0.913405 6.75569
179 225 255
3.83301 -0.9139 6.75935
180 224 255
3.83988 -0.914396 6.76301
180 224 255
3.84739 -0.9139 6.75935
175 210 252
2.05167 -0.991212 7.29291
188 224 222
2.05804 -0.991792 7.29718
188 224 222
2.06442 -0.992372 7.30145
178 215 221
2.07081 -0.992954 7.30573
175 213 224
2.07599 -0.992954 7.30573
157 200 209
2.08239 -0.993535 7.31001
140 187 197
2.0888 -0.994118 7.31429
120 168 178
2.23974 -1.01313 7.45418
120 162 187
2.24637 -1.01374 7.45864
116 157 185
2.253 -1.01434 7.4631
116 157 185
2.25965 -1.01495 7.46757
101 140 169
2.2663 -1.01556 7.47204
69 108 137
2.27296 -1.01617 7.47652
33 68 98
2.30409 -1.00891 7.42312
128 159 164
2.31073 -1.00951 7.42754
128 159 164
2.31738 -1.01011 7.43197
138 171 178
2.32127 -1.00951 7.42754
137 174 183
2.32792 -1.01011 7.43197
141 179 190
2.33458 -1.01071 7.4364
140 179 194
2.33985 -1.01071 7.4364
145 186 206
2.34652 -1.01132 7.44084
148 188 213
2.3532 -1.01192 7.44528
151 190 219
2.35848 -1.01192 7.44528
147 188 220
2.36517 -1.01253 7.44973
139 179 215
2.37187 -1.01313 7.45418
113 148 186
2.52211 -1.01617 7.47652
148 182 192
2.52893 -1.01678 7.48101
143 179 191
2.53576 -1.01739 7.48549
141 179 192
2.53802 -1.01617 7.47652
137 174 190
2.54484 -1.01678 7.48101
136 173 191
2.55699 -1.01739 7.48549
131 166 185
2.56383 -1.018 7.48999
137 172 191
2.57069 -1.01861 7.49449
137 172 191
2.5935 -1.01922 7.499
153 187 197
2.60038 -1.01984 7.50351
157 189 200
2.66642 -1.02477 7.5398
91 127 143
2.8633 -1.03604 7.62274
145 175 173
2.87046 -1.03667 7.6274
141 172 175
2.87763 -1.03731 7.63207
140 170 180
2.8848 -1.03794 7.63674
140 170 180
2.90646 -1.03794 7.63674
110 145 165
2.91366 -1.03858 7.64142
100 135 155
2.86855 -1.01495 7.46757
127 164 183
2.87557 -1.01556 7.47204
138 175 194
2.88963 -1.01678 7.48101
142 180 203
2.89146 -1.01556 7.47204
139 179 204
2.8985 -1.01617 7.47652
135 175 201
2.9462 -1.01984 7.50351
162 201 234
2.9533 -1.02045 7.50803
166 202 234
2.9604 -1.02106 7.51255
163 199 231
2.96395 -1.02045 7.50803
147 182 212
3.03981 -1.01556 7.47204
139 157 157
3.04693 -1.01617 7.47652
139 157 157
3.05406 -1.01678 7.48101
146 165 169
3.0612 -1.01739 7.48549
154 175 180
3.06813 -1.01617 7.47652
158 185 196
3.10022 -1.018 7.48999
141 178 194
3.10739 -1.01861 7.49449
141 179 192
3.15407 -1.02168 7.51708
143 166 184
3.1613 -1.0223 7.52161
143 168 188
3.16854 -1.02291 7.52615
143 172 190
3.17006 -1.02168 7.51708
143 176 193
3.1773 -1.0223 7.52161
141 174 191
3.18455 -1.02291 7.52615
135 168 183
3.19182 -1.02353 7.53069
135 168 183
3.14774 -1.00771 7.4143
130 162 175
3.153 -1.00771 7.4143
125 157 168
3.17822 -1.01071 7.4364
136 167 170
3.18539 -1.01132 7.44084
134 165 168
3.20313 -1.01192 7.44528
132 161 165
3.21032 -1.01253 7.44973
131 160 164
3.16791 -0.99587 7.32719
131 160 166
3.17497 -0.996456 7.33149
133 160 167
3.18203 -0.997042 7.3358
135 162 169
3.18911 -0.997628 7.34012
135 162 169
3.19432 -0.997628 7.34012
136 161 168
3.2014 -0.998216 7.34444
141 161 172
3.20661 -0.998216 7.34444
147 167 178
3.21371 -0.998804 7.34877
154 173 187
3.21703 -0.998216 7.34444
156 180 192
3.22413 -0.998804 7.34877
158 190 203
3.23125 -0.999393 7.3531
158 190 203
3.23265 -0.998216 7.34444
161 197 211
3.23977 -0.998804 7.34877
166 203 219
3.24689 -0.999393 7.3531
170 207 225
3.2521 -0.999393 7.3531
171 206 225
3.25924 -0.999982 7.35744
165 196 216
3.26445 -0.999982 7.35744
155 182 201
3.2716 -1.00057 7.36178
155 182 201
3.27876 -1.00116 7.36613
144 170 187
3.28592 -1.00176 7.37048
136 159 177
3.29115 -1.00176 7.37048
130 153 171
3.30355 -1.00235 7.37484
131 160 178
3.31074 -1.00294 7.37921
140 169 187
3.3284 -1.00353 7.38357
142 174 187
3.33561 -1.00413 7.38795
131 163 174
3.31079 -0.993535 7.31001
105 134 140
3.31792 -0.994118 7.31429
104 132 135
3.32505 -0.994701 7.31859
104 132 135
3.3322 -0.995285 7.32288
107 133 134
3.33739 -0.995285 7.32288
112 136 136
3.34455 -0.99587 7.32719
112 136 138
3.35171 -0.996456 7.33149
112 137 141
3.35691 -0.996456 7.33149
114 139 143
3.37846 -0.998216 7.34444
110 137 144
3.38367 -0.998216 7.34444
110 134 144
3.39087 -0.998804 7.34877
107 131 141
3.39809 -0.999393 7.3531
98 125 134
3.33169 -0.963603 7.08978
151 190 233
3.39461 -0.980321 7.21278
158 196 241
3.40169 -0.980888 7.21695
160 202 244
3.40681 -0.980888 7.21695
162 204 244
3.4139 -0.981456 7.22113
156 198 236
3.421 -0.982024 7.22531
156 198 236
3.42811 -0.982594 7.2295
155 193 230
3.43323 -0.982594 7.2295
155 193 229
3.44035 -0.983163 7.23369
160 194 229
3.44349 -0.982594 7.2295
164 197 230
3.45061 -0.983163 7.23369
162 193 221
3.45775 -0.983734 7.23789
147 177 201
3.46489 -0.984305 7.2421
147 177 201
3.47406 -0.98545 7.25052
126 153 172
3.43133 -0.97189 7.15075
110 136 149
3.43837 -0.972448 7.15485
107 132 139
3.45446 -0.974124 7.16719
121 145 145
3.46153 -0.974684 7.17131
121 145 145
3.46861 -0.975245 7.17543
126 150 150
3.4717 -0.974684 7.17131
126 150 150
3.47878 -0.975245 7.17543
125 151 150
3.48588 -0.975806 7.17956
127 151 153
3.48896 -0.975245 7.17543
125 151 152
3.49606 -0.975806 7.17956
125 151 152
3.50317 -0.976368 7.1837
121 147 146
3.51538 -0.976931 7.18784
124 150 149
3.5225 -0.977494 7.19198
133 157 159
3.5276 -0.977494 7.19198
140 164 166
3.53474 -0.978058 7.19613
139 163 167
3.54189 -0.978623 7.20029
139 163 167
3.54904 -0.979188 7.20445
129 150 155
3.55415 -0.979188 7.20445
116 140 144
3.56132 -0.979754 7.20861
110 134 138
3.5736 -0.980321 7.21278
105 132 139
3.58079 -0.980888 7.21695
105 132 139
3.58798 -0.981456 7.22113
103 133 144
3.60334 -0.981456 7.22113
108 148 173
3.61055 -0.982024 7.22531
115 156 188
3.61777 -0.982594 7.2295
115 156 188
3.6425 -0.983734 7.23789
152 198 250
3.64551 -0.983163 7.23369
148 195 247
3.65276 -0.983734 7.23789
148 195 247
3.66002 -0.984305 7.2421
142 192 243
3.58399 -0.962509 7.08173
148 199 246
3.59105 -0.963056 7.08575
154 206 246
3.59608 -0.963056 7.08575
166 216 251
3.60315 -0.963603 7.08978
171 221 248
3.61023 -0.964151 7.09381
171 221 248
3.6132 -0.963603 7.08978
171 217 241
3.61412 -0.962509 7.08173
160 203 222
3.6212 -0.963056 7.08575
141 179 198
3.57945 -0.950634 6.99436
120 156 172
3.58441 -0.950634 6.99436
111 144 161
3.59138 -0.951168 6.99828
111 144 161
3.59836 -0.951702 7.00221
113 142 158
3.61032 -0.952236 7.00615
121 143 156
3.63427 -0.953307 7.01403
130 149 156
3.63925 -0.953307 7.01403
133 152 159
3.64627 -0.953844 7.01797
134 154 161
3.65125 -0.953844 7.01797
132 156 160
3.65828 -0.954381 7.02192
131 156 160
3.66532 -0.954918 7.02588
131 156 160
3.68027 -0.954918 7.02588
132 161 165
3.68733 -0.955457 7.02984
135 164 170
3.69439 -0.955995 7.0338
135 164 170
3.69938 -0.955995 7.0338
137 166 172
3.70646 -0.956535 7.03777
139 166 175
3.71434 -0.955995 7.0338
142 166 178
3.73352 -0.957075 7.04175
138 161 177
3.74062 -0.957616 7.04572
127 154 171
3.74562 -0.957616 7.04572
116 144 165
3.75273 -0.958157 7.04971
106 138 161
3.77199 -0.959241 7.05768
113 149 183
3.78414 -0.959784 7.06168
141 187 223
3.72379 -0.943229 6.93987
156 206 239
3.73079 -0.943754 6.94374
156 206 239
3.73363 -0.943229 6.93987
169 224 254
3.73855 -0.943229 6.93987
179 240 255
3.74556 -0.943754 6.94374
184 247 255
3.74839 -0.943229 6.93987
181 249 255
3.7554 -0.943754 6.94374
181 248 254
3.76242 -0.94428 6.94761
181 248 254
3.76525 -0.943754 6.94374
183 248 254
3.77227 -0.94428 6.94761
190 250 255
3.7751 -0.943754 6.94374
194 253 255
3.77792 -0.943229 6.93987
195 247 255
3.78494 -0.943754 6.94374
195 247 255
3.75787 -0.933362 6.86727
154 188 225
3.76067 -0.932848 6.8635
139 168 208
3.76761 -0.933362 6.86727
128 153 193
3.77456 -0.933876 6.87106
128 153 193
3.77735 -0.933362 6.86727
130 154 190
3.78014 -0.932848 6.8635
132 158 185
3.81564 -0.934391 6.87484
140 176 188
3.83237 -0.934906 6.87864
139 180 184
3.83725 -0.934906 6.87864
138 178 186
3.84425 -0.935422 6.88243
138 177 192
3.847 -0.934906 6.87864
135 176 196
3.85401 -0.935422 6.88243
135 179 204
3.86102 -0.935938 6.88623
135 179 204
3.8659 -0.935938 6.88623
141 186 217
3.87292 -0.936455 6.89004
144 193 225
3.87995 -0.936973 6.89384
152 202 235
3.81656 -0.918195 6.75569
163 213 248
3.82342 -0.918693 6.75935
168 216 252
3.82822 -0.918693 6.75935
178 222 255
3.83509 -0.919191 6.76301
177 219 255
3.84196 -0.91969 6.76668
177 219 255
3.84947 -0.919191 6.76301
169 201 242
3.85218 -0.918693 6.75935
121 142 187
2.05407 -0.997549 7.30145
189 221 220
2.06045 -0.998134 7.30573
189 221 220
2.06684 -0.998719 7.31001
177 208 211
2.07324 -0.999304 7.31429
161 196 200
2.09153 -0.998134 7.30573
109 154 160
2.09794 -0.998719 7.31001
108 148 158
2.10436 -0.999304 7.31429
86 123 132
2.25965 -1.02025 7.46757
108 156 194
2.2663 -1.02086 7.47204
86 131 170
2.27296 -1.02147 7.47652
56 99 134
2.27963 -1.02208 7.48101
25 63 99
2.31587 -1.02639 7.51255
47 64 74
2.3226 -1.02701 7.51708
78 98 107
2.32933 -1.02763 7.52161
105 130 137
2.30409 -1.01417 7.42312
127 156 162
2.31073 -1.01478 7.42754
127 156 162
2.31738 -1.01538 7.43197
134 167 174
2.33458 -1.01599 7.4364
145 182 198
2.33985 -1.01599 7.4364
148 186 207
2.34652 -1.01659 7.44084
152 189 215
2.3518 -1.01659 7.44084
153 189 221
2.35848 -1.0172 7.44528
156 194 230
2.36517 -1.01781 7.44973
153 191 230
2.51001 -1.02086 7.47204
137 172 178
2.51681 -1.02147 7.47652
148 182 191
2.5206 -1.02086 7.47204
148 182 192
2.52741 -1.02147 7.47652
145 178 193
2.53423 -1.02208 7.48101
138 174 190
2.53802 -1.02147 7.47652
136 171 191
2.54484 -1.02208 7.48101
137 172 192
2.55015 -1.02208 7.48101
138 173 193
2.55699 -1.02269 7.48549
140 175 195
2.56383 -1.02331 7.48999
144 179 198
2.57069 -1.02392 7.49449
144 179 198
2.5935 -1.02454 7.499
153 189 205
2.60038 -1.02516 7.50351
156 189 204
2.64558 -1.02825 7.52615
137 171 183
2.65252 -1.02887 7.53069
123 159 173
2.65946 -1.02949 7.53524
113 149 165
2.66642 -1.03011 7.5398
102 139 157
2.82397 -1.03891 7.60415
129 157 158
2.83109 -1.03954 7.60879
133 161 162
2.83821 -1.04017 7.61343
132 161 159
2.84535 -1.04081 7.61809
125 155 153
2.8633 -1.04145 7.62274
143 175 174
2.87046 -1.04208 7.6274
143 174 176
2.87763 -1.04272 7.63207
143 174 176
2.8848 -1.04336 7.63674
140 171 176
2.90646 -1.04336 7.63674
116 145 161
2.91366 -1.044 7.64142
101 132 150
2.88259 -1.02147 7.47652
132 170 191
2.89146 -1.02086 7.47204
135 176 198
2.8985 -1.02147 7.47652
136 176 201
2.9462 -1.02516 7.50351
164 203 234
2.9533 -1.02577 7.50803
170 206 238
2.95684 -1.02516 7.50351
164 200 232
2.96395 -1.02577 7.50803
148 183 213
2.97106 -1.02639 7.51255
148 183 213
2.97818 -1.02701 7.51708
125 160 188
3.03981 -1.02086 7.47204
143 161 165
3.04693 -1.02147 7.47652
143 161 165
3.05406 -1.02208 7.48101
148 167 171
3.0612 -1.02269 7.48549
154 174 181
3.06813 -1.02147 7.47652
157 183 196
3.10022 -1.02331 7.48999
141 178 194
3.10739 -1.02392 7.49449
141 179 192
3.15407 -1.02701 7.51708
143 166 184
3.1613 -1.02763 7.52161
143 168 188
3.16854 -1.02825 7.52615
143 172 190
3.17006 -1.02701 7.51708
143 176 193
3.1773 -1.02763 7.52161
141 174 191
3.18455 -1.02825 7.52615
135 168 183
3.19182 -1.02887 7.53069
135 168 183
3.14774 -1.01297 7.4143
130 162 175
3.153 -1.01297 7.4143
125 157 168
3.17822 -1.01599 7.4364
136 167 170
3.18539 -1.01659 7.44084
141 170 174
3.19257 -1.0172 7.44528
141 170 174
3.19976 -1.01781 7.44973
143 172 176
3.20313 -1.0172 7.44528
145 174 178
3.21032 -1.01781 7.44973
145 174 178
3.2281 -1.01842 7.45418
140 169 175
3.23532 -1.01902 7.45864
137 164 171
3.24254 -1.01963 7.4631
137 164 171
3.1962 -1.00342 7.34444
137 162 169
3.20661 -1.00342 7.34444
147 167 178
3.21371 -1.00401 7.34877
152 171 185
3.21703 -1.00342 7.34444
153 176 190
3.22413 -1.00401 7.34877
153 185 198
3.23125 -1.00461 7.3531
153 185 198
3.23265 -1.00342 7.34444
154 192 205
3.23977 -1.00401 7.34877
159 198 215
3.24689 -1.00461 7.3531
164 203 220
3.2521 -1.00461 7.3531
169 204 224
3.25924 -1.0052 7.35744
165 196 217
3.26445 -1.0052 7.35744
157 184 205
3.2716 -1.00579 7.36178
157 184 205
3.27876 -1.00639 7.36613
145 170 192
3.28592 -1.00698 7.37048
135 160 180
3.29115 -1.00698 7.37048
129 154 174
3.29832 -1.00758 7.37484
129 157 178
3.30355 -1.00758 7.37484
133 164 184
3.31074 -1.00817 7.37921
142 173 193
3.31793 -1.00877 7.38357
142 173 193
3.3212 -1.00817 7.37921
149 180 198
3.3284 -1.00877 7.38357
145 178 193
3.31079 -0.998719 7.31001
110 139 145
3.31792 -0.999304 7.31429
107 135 138
3.32505 -0.999891 7.31859
107 135 138
3.3322 -1.00048 7.32288
109 135 136
3.33739 -1.00048 7.32288
114 138 140
3.34455 -1.00107 7.32719
114 138 140
3.35171 -1.00165 7.33149
113 138 142
3.35691 -1.00165 7.33149
114 139 143
3.36408 -1.00224 7.3358
109 136 143
3.37127 -1.00283 7.34012
109 136 143
3.37846 -1.00342 7.34444
109 136 143
3.38367 -1.00342 7.34444
109 133 143
3.39087 -1.00401 7.34877
108 132 142
3.39809 -1.00461 7.3531
100 127 136
3.40531 -1.0052 7.35744
93 122 130
3.46863 -1.00997 7.39233
138 177 218
3.47593 -1.01056 7.39671
149 190 234
3.40169 -0.986005 7.21695
158 201 244
3.40681 -0.986005 7.21695
159 202 245
3.42811 -0.98772 7.2295
153 195 235
3.43323 -0.98772 7.2295
154 193 232
3.44035 -0.988292 7.23369
157 195 232
3.44349 -0.98772 7.2295
162 198 234
3.45061 -0.988292 7.23369
160 193 224
3.45775 -0.988866 7.23789
160 193 224
3.47406 -0.990591 7.25052
127 155 176
3.43133 -0.97696 7.15075
111 139 153
3.4443 -0.979206 7.16719
108 135 142
3.45136 -0.979769 7.17131
113 138 142
3.45446 -0.979206 7.16719
121 145 145
3.46153 -0.979769 7.17131
121 145 145
3.46861 -0.980333 7.17543
125 150 147
3.4737 -0.980333 7.17543
125 150 147
3.48588 -0.980897 7.17956
125 149 151
3.48896 -0.980333 7.17543
124 148 148
3.49606 -0.980897 7.17956
124 148 148
3.50317 -0.981462 7.1837
119 144 141
3.51028 -0.982027 7.18784
119 144 140
3.51538 -0.982027 7.18784
123 148 145
3.5225 -0.982594 7.19198
131 155 155
3.5276 -0.982594 7.19198
137 161 163
3.53474 -0.983161 7.19613
137 161 163
3.54189 -0.983728 7.20029
136 160 164
3.54904 -0.984296 7.20445
128 149 154
3.55415 -0.984296 7.20445
117 141 145
3.56132 -0.984865 7.20861
109 133 137
3.56643 -0.984865 7.20861
105 130 135
3.5736 -0.985435 7.21278
104 131 140
3.58079 -0.986005 7.21695
104 131 140
3.58798 -0.986576 7.22113
103 133 144
3.5931 -0.986576 7.22113
102 135 154
3.60031 -0.987147 7.22531
103 139 163
3.61264 -0.98772 7.2295
116 156 191
3.61987 -0.988292 7.23369
116 156 191
3.63013 -0.988292 7.23369
148 192 241
3.6425 -0.988866 7.23789
160 207 255
3.64551 -0.988292 7.23369
154 201 255
3.65276 -0.988866 7.23789
154 201 255
3.66002 -0.98944 7.2421
147 197 248
3.66728 -0.990015 7.2463
149 201 249
3.59105 -0.96808 7.08575
153 206 248
3.59608 -0.96808 7.08575
166 216 251
3.60315 -0.96863 7.08978
173 223 250
3.61023 -0.969181 7.09381
173 223 250
3.6132 -0.96863 7.08978
175 221 244
3.61412 -0.96753 7.08173
163 206 223
3.58347 -0.956667 7.00221
119 155 171
3.59045 -0.957204 7.00615
109 142 159
3.59744 -0.957742 7.01008
109 142 159
3.59836 -0.956667 7.00221
111 140 156
3.60535 -0.957204 7.00615
115 141 156
3.61032 -0.957204 7.00615
121 143 156
3.61732 -0.957742 7.01008
123 145 158
3.62229 -0.957742 7.01008
127 147 158
3.6293 -0.958281 7.01403
127 147 158
3.63632 -0.95882 7.01797
130 148 158
3.64335 -0.95936 7.02192
133 153 160
3.64627 -0.95882 7.01797
135 156 161
3.66532 -0.9599 7.02588
133 159 160
3.67031 -0.9599 7.02588
132 160 161
3.67736 -0.960441 7.02984
132 162 164
3.68442 -0.960983 7.0338
134 164 166
3.68941 -0.960983 7.0338
135 164 168
3.69648 -0.961525 7.03777
135 164 168
3.70646 -0.961525 7.03777
139 166 175
3.71354 -0.962068 7.04175
142 166 176
3.71434 -0.960983 7.0338
142 166 176
3.72143 -0.961525 7.03777
142 166 176
3.72852 -0.962068 7.04175
142 166 176
3.73352 -0.962068 7.04175
139 163 175
3.74062 -0.962611 7.04572
131 157 172
3.75273 -0.963155 7.04971
114 145 166
3.75986 -0.9637 7.05369
114 145 166
3.76699 -0.964245 7.05768
113 144 173
3.77199 -0.964245 7.05768
115 149 184
3.77913 -0.964791 7.06168
122 161 200
3.78414 -0.964791 7.06168
133 177 216
3.7913 -0.965338 7.06568
146 196 233
3.79846 -0.965885 7.06969
146 196 233
3.73855 -0.94815 6.93987
169 229 255
3.74556 -0.948678 6.94374
176 238 255
3.74839 -0.94815 6.93987
177 245 255
3.7554 -0.948678 6.94374
179 247 255
3.76242 -0.949206 6.94761
179 247 255
3.76525 -0.948678 6.94374
180 246 255
3.77227 -0.949206 6.94761
186 248 255
3.7772 -0.949206 6.94761
190 248 255
3.77792 -0.94815 6.93987
188 241 255
3.78494 -0.948678 6.94374
188 241 255
3.79198 -0.949206 6.94761
179 225 249
3.76961 -0.942382 6.89766
165 204 235
3.75994 -0.938748 6.87106
147 179 217
3.76067 -0.937715 6.8635
134 163 203
3.76761 -0.938231 6.86727
134 163 203
3.77456 -0.938748 6.87106
127 153 190
3.77735 -0.938231 6.86727
128 154 187
3.78709 -0.938231 6.86727
134 163 181
3.79405 -0.938748 6.87106
134 166 181
3.80101 -0.939265 6.87484
134 166 181
3.80589 -0.939265 6.87484
136 170 182
3.81076 -0.939265 6.87484
139 172 187
3.81774 -0.939783 6.87864
141 177 191
3.82473 -0.940302 6.88243
142 182 192
3.83172 -0.940821 6.88623
142 182 192
3.83449 -0.940302 6.88243
142 182 190
3.84149 -0.940821 6.88623
142 182 194
3.84425 -0.940302 6.88243
140 182 196
3.85125 -0.940821 6.88623
138 181 200
3.85401 -0.940302 6.88243
136 181 204
3.86102 -0.940821 6.88623
136 181 204
3.87292 -0.941341 6.89004
142 191 221
3.87566 -0.940821 6.88623
150 200 233
3.88269 -0.941341 6.89004
151 204 238
3.88973 -0.941861 6.89384
151 204 238
3.8145 -0.922485 6.75203
159 209 244
3.82822 -0.923485 6.75935
175 219 255
3.83509 -0.923986 6.76301
178 217 255
3.84196 -0.924487 6.76668
178 217 255
3.84259 -0.923485 6.75935
189 227 255
2.09153 -1.00331 7.30573
115 156 162
2.09794 -1.0039 7.31001
118 155 163
2.2663 -1.02615 7.47204
97 148 191
2.27296 -1.02677 7.47652
75 123 163
2.27963 -1.02739 7.48101
43 85 125
2.31587 -1.03172 7.51255
33 47 58
2.3226 -1.03234 7.51708
66 84 94
2.32933 -1.03296 7.52161
101 126 133
2.33607 -1.03358 7.52615
101 126 133
2.31073 -1.02004 7.42754
125 154 160
2.31738 -1.02065 7.43197
134 165 170
2.3518 -1.02187 7.44084
155 190 220
2.35848 -1.02248 7.44528
157 193 227
2.36517 -1.02309 7.44973
157 192 230
2.38102 -1.02309 7.44973
127 159 206
2.38773 -1.0237 7.45418
107 137 187
2.39444 -1.02431 7.45864
84 110 159
2.40117 -1.02493 7.4631
51 78 125
2.51681 -1.02677 7.47652
151 185 194
2.5206 -1.02615 7.47204
149 183 193
2.52741 -1.02677 7.47652
143 176 191
2.53423 -1.02739 7.48101
138 171 190
2.53802 -1.02677 7.47652
135 170 190
2.54484 -1.02739 7.48101
138 173 195
2.55015 -1.02739 7.48101
141 176 198
2.55699 -1.028 7.48549
144 179 199
2.56383 -1.02862 7.48999
147 184 203
2.57069 -1.02924 7.49449
147 184 203
2.59506 -1.03048 7.50351
153 188 207
2.60195 -1.0311 7.50803
155 190 209
2.65252 -1.03421 7.53069
133 169 185
2.65946 -1.03483 7.53524
123 160 176
2.66642 -1.03546 7.5398
115 153 172
2.82397 -1.0443 7.60415
131 159 160
2.83109 -1.04493 7.60879
138 168 168
2.83821 -1.04557 7.61343
140 170 170
2.84535 -1.04621 7.61809
134 166 163
2.8633 -1.04685 7.62274
146 178 177
2.87046 -1.04749 7.6274
146 177 179
2.87763 -1.04813 7.63207
146 177 179
2.91366 -1.04942 7.64142
107 136 150
2.88259 -1.02677 7.47652
113 151 170
2.88963 -1.02739 7.48101
122 160 181
2.89146 -1.02615 7.47204
126 167 189
2.93911 -1.02986 7.499
148 187 216
2.9462 -1.03048 7.50351
164 201 230
2.9533 -1.0311 7.50803
169 205 237
2.95684 -1.03048 7.50351
169 204 234
2.96395 -1.0311 7.50803
153 188 218
2.97106 -1.03172 7.51255
153 188 218
2.97992 -1.0311 7.50803
110 144 169
3.05406 -1.02739 7.48101
150 169 175
3.0612 -1.028 7.48549
156 176 183
3.06835 -1.02862 7.48999
156 180 190
3.06997 -1.02739 7.48101
157 183 196
3.08058 -1.02739 7.48101
150 183 200
3.08774 -1.028 7.48549
150 183 200
3.0949 -1.02862 7.48999
148 183 202
3.10739 -1.02924 7.49449
140 177 193
3.15407 -1.03234 7.51708
142 163 180
3.1613 -1.03296 7.52161
144 167 185
3.16854 -1.03358 7.52615
145 174 192
3.1773 -1.03296 7.52161
143 175 190
3.18455 -1.03358 7.52615
134 166 179
3.19182 -1.03421 7.53069
134 166 179
3.14774 -1.01822 7.4143
126 158 169
3.17822 -1.02126 7.4364
140 169 173
3.18539 -1.02187 7.44084
141 170 174
3.19257 -1.02248 7.44528
141 170 174
3.19976 -1.02309 7.44973
143 172 176
3.20313 -1.02248 7.44528
145 174 178
3.21032 -1.02309 7.44973
145 174 178
3.2281 -1.0237 7.45418
140 169 175
3.23532 -1.02431 7.45864
137 164 171
3.24254 -1.02493 7.4631
137 164 171
3.1962 -1.00863 7.34444
137 162 169
3.20661 -1.00863 7.34444
147 167 178
3.21371 -1.00923 7.34877
152 171 185
3.21703 -1.00863 7.34444
153 176 190
3.22413 -1.00923 7.34877
153 185 198
3.23125 -1.00982 7.3531
153 185 198
3.23265 -1.00863 7.34444
154 192 205
3.23977 -1.00923 7.34877
159 198 215
3.24689 -1.00982 7.3531
164 203 220
3.2521 -1.00982 7.3531
169 204 224
3.25924 -1.01042 7.35744
165 196 217
3.26445 -1.01042 7.35744
157 184 205
3.2716 -1.01101 7.36178
158 186 207
3.27876 -1.01161 7.36613
147 174 195
3.29115 -1.01221 7.37048
130 157 178
3.29832 -1.01281 7.37484
131 159 181
3.30355 -1.01281 7.37484
137 168 189
3.31074 -1.0134 7.37921
150 181 202
3.31793 -1.014 7.38357
150 181 202
3.32317 -1.014 7.38357
156 189 208
3.33037 -1.01461 7.38795
151 184 201
3.33167 -1.0134 7.37921
135 168 183
3.31986 -1.00508 7.31859
109 137 141
3.327 -1.00567 7.32288
109 137 141
3.33415 -1.00626 7.32719
111 137 138
3.34131 -1.00685 7.33149
116 140 142
3.34455 -1.00626 7.32719
116 140 142
3.35171 -1.00685 7.33149
115 139 143
3.35888 -1.00744 7.3358
114 139 143
3.37846 -1.00863 7.34444
108 135 142
3.38566 -1.00923 7.34877
109 133 143
3.39087 -1.00923 7.34877
109 133 143
3.39809 -1.00982 7.3531
103 130 139
3.40531 -1.01042 7.35744
96 125 133
3.41254 -1.01101 7.36178
96 125 133
3.46863 -1.01521 7.39233
138 177 218
3.47593 -1.01581 7.39671
152 194 236
3.48324 -1.01641 7.4011
159 202 245
3.40169 -0.991122 7.21695
159 204 246
3.40681 -0.991122 7.21695
158 203 245
3.4139 -0.991696 7.22113
153 198 240
3.421 -0.992271 7.22531
153 198 240
3.42811 -0.992846 7.2295
152 197 238
3.43323 -0.992846 7.2295
152 195 237
3.44035 -0.993421 7.23369
155 197 237
3.44548 -0.993421 7.23369
160 198 235
3.45261 -0.993998 7.23789
159 193 228
3.45975 -0.994575 7.2421
159 193 228
3.4669 -0.995153 7.2463
147 181 209
3.47406 -0.995731 7.25052
130 160 184
3.43724 -0.983722 7.16307
116 145 161
3.4443 -0.984288 7.16719
112 139 148
3.45136 -0.984854 7.17131
115 140 144
3.45446 -0.984288 7.16719
120 144 144
3.46153 -0.984854 7.17131
120 144 144
3.46861 -0.98542 7.17543
124 149 146
3.4757 -0.985987 7.17956
127 149 147
3.48079 -0.985987 7.17956
127 149 147
3.48789 -0.986555 7.1837
128 150 148
3.49499 -0.987124 7.18784
127 149 147
3.50211 -0.987693 7.19198
127 149 147
3.50519 -0.987124 7.18784
125 147 144
3.51231 -0.987693 7.19198
126 148 145
3.54904 -0.989405 7.20445
122 145 151
3.55415 -0.989405 7.20445
116 139 145
3.56132 -0.989977 7.20861
114 137 143
3.56849 -0.990549 7.21278
107 134 141
3.57567 -0.991122 7.21695
107 134 141
3.58079 -0.991122 7.21695
108 136 147
3.58798 -0.991696 7.22113
106 138 151
3.59518 -0.992271 7.22531
107 140 159
3.60031 -0.992271 7.22531
107 143 167
3.60752 -0.992846 7.2295
113 150 179
3.61474 -0.993421 7.23369
113 150 179
3.61987 -0.993421 7.23369
120 160 196
3.6271 -0.993998 7.23789
133 174 218
3.63013 -0.993421 7.23369
149 193 242
3.63737 -0.993998 7.23789
162 205 255
3.6425 -0.993998 7.23789
161 208 255
3.66002 -0.994575 7.2421
148 198 249
3.66941 -0.995731 7.25052
150 202 249
3.59608 -0.973104 7.08575
168 218 253
3.60315 -0.973657 7.08978
176 226 253
3.61023 -0.974211 7.09381
176 226 253
3.6132 -0.973657 7.08978
180 226 249
3.61617 -0.973104 7.08575
168 211 230
3.62326 -0.973657 7.08978
146 185 202
3.58347 -0.961631 7.00221
121 157 173
3.59045 -0.962172 7.00615
121 157 173
3.59744 -0.962712 7.01008
110 143 158
3.61732 -0.962712 7.01008
124 146 159
3.62433 -0.963254 7.01403
124 146 159
3.63134 -0.963796 7.01797
126 148 159
3.63632 -0.963796 7.01797
130 150 159
3.64335 -0.964338 7.02192
134 154 161
3.64627 -0.963796 7.01797
137 158 163
3.6533 -0.964338 7.02192
135 159 163
3.66034 -0.964882 7.02588
135 159 163
3.66532 -0.964882 7.02588
135 160 164
3.67237 -0.965425 7.02984
134 162 165
3.67736 -0.965425 7.02984
134 164 166
3.68442 -0.96597 7.0338
134 165 167
3.68941 -0.96597 7.0338
137 166 170
3.69648 -0.966515 7.03777
137 166 170
3.70855 -0.967061 7.04175
141 168 175
3.71564 -0.967607 7.04572
142 169 176
3.71854 -0.967061 7.04175
142 169 176
3.72563 -0.967607 7.04572
142 169 178
3.73274 -0.968154 7.04971
142 169 178
3.74485 -0.968701 7.05369
137 165 177
3.75198 -0.96925 7.05768
132 161 177
3.75485 -0.968701 7.05369
124 156 177
3.76198 -0.96925 7.05768
124 156 177
3.76912 -0.969798 7.06168
119 153 181
3.77199 -0.96925 7.05768
119 155 189
3.77913 -0.969798 7.06168
119 158 197
3.78414 -0.969798 7.06168
128 172 211
3.7913 -0.970348 7.06568
139 187 227
3.79846 -0.970898 7.06969
139 187 227
3.76242 -0.954132 6.94761
175 241 255
3.76525 -0.953601 6.94374
179 242 255
3.77227 -0.954132 6.94761
183 244 255
3.77792 -0.95307 6.93987
180 232 253
3.78494 -0.953601 6.94374
180 232 253
3.79198 -0.954132 6.94761
168 214 240
3.77587 -0.948847 6.90912
152 193 223
3.75994 -0.94362 6.87106
138 172 209
3.76067 -0.942581 6.8635
129 159 197
3.76761 -0.9431 6.86727
129 159 197
3.77456 -0.94362 6.87106
124 152 189
3.78151 -0.94414 6.87484
125 154 186
3.78639 -0.94414 6.87484
129 157 181
3.78917 -0.94362 6.87106
132 163 183
3.79614 -0.94414 6.87484
136 167 185
3.80311 -0.94466 6.87864
136 167 185
3.82473 -0.945182 6.88243
149 188 205
3.83172 -0.945704 6.88623
149 188 205
3.83449 -0.945182 6.88243
149 191 207
3.84149 -0.945704 6.88623
150 192 208
3.84425 -0.945182 6.88243
150 191 209
3.85125 -0.945704 6.88623
147 189 211
3.85826 -0.946226 6.89004
147 189 211
3.86102 -0.945704 6.88623
143 188 211
3.86804 -0.946226 6.89004
144 190 216
3.87292 -0.946226 6.89004
144 194 221
3.88269 -0.946226 6.89004
145 198 230
3.88973 -0.946749 6.89384
145 198 230
3.82135 -0.927775 6.75569
155 204 237
3.83509 -0.928781 6.76301
175 215 251
3.84196 -0.929285 6.76668
175 215 251
3.84259 -0.928278 6.75935
183 221 255
3.84947 -0.928781 6.76301
155 187 226
2.05804 -1.00731 7.29718
167 195 198
2.06442 -1.0079 7.30145
160 189 193
2.06839 -1.00731 7.29718
153 184 189
2.07478 -1.0079 7.30145
145 183 186
2.08117 -1.00849 7.30573
134 175 177
2.3226 -1.03767 7.51708
53 71 81
2.32933 -1.03829 7.52161
94 117 123
2.33607 -1.03892 7.52615
94 117 123
2.31073 -1.02531 7.42754
119 147 151
2.31738 -1.02592 7.43197
132 161 165
2.3518 -1.02714 7.44084
144 179 207
2.35848 -1.02776 7.44528
144 180 212
2.36517 -1.02837 7.44973
144 180 216
2.37187 -1.02899 7.45418
139 174 214
2.37858 -1.0296 7.45864
139 174 214
2.38102 -1.02837 7.44973
133 167 212
2.39444 -1.0296 7.45864
117 148 194
2.40117 -1.03022 7.4631
93 124 170
2.51001 -1.03145 7.47204
148 182 192
2.51681 -1.03207 7.47652
152 186 196
2.5206 -1.03145 7.47204
147 181 193
2.52741 -1.03207 7.47652
139 172 187
2.53423 -1.03269 7.48101
135 168 187
2.53802 -1.03207 7.47652
135 167 188
2.54484 -1.03269 7.48101
139 171 192
2.55699 -1.03331 7.48549
145 180 200
2.56383 -1.03393 7.48999
145 180 200
2.59506 -1.0358 7.50351
154 189 208
2.60195 -1.03642 7.50803
157 192 211
2.65412 -1.04018 7.53524
138 175 193
2.66107 -1.04081 7.5398
134 172 191
2.66803 -1.04143 7.54436
129 167 188
2.82569 -1.05033 7.60879
132 162 164
2.83281 -1.05097 7.61343
141 172 174
2.83995 -1.05161 7.61809
146 177 179
2.84709 -1.05226 7.62274
143 175 174
2.8633 -1.05226 7.62274
149 183 184
2.87046 -1.0529 7.6274
149 183 185
2.87763 -1.05354 7.63207
149 183 185
2.88087 -1.03145 7.47204
93 131 150
2.88789 -1.03207 7.47652
101 139 160
2.8932 -1.03207 7.47652
112 150 173
2.93735 -1.03455 7.49449
138 175 202
2.94443 -1.03517 7.499
150 185 213
2.95152 -1.0358 7.50351
157 192 222
2.95684 -1.0358 7.50351
165 200 228
2.96395 -1.03642 7.50803
157 191 219
2.97106 -1.03704 7.51255
157 191 219
2.9728 -1.0358 7.50351
140 171 199
2.97992 -1.03642 7.50803
118 150 173
3.00611 -1.02899 7.45418
92 116 116
3.0132 -1.0296 7.45864
105 130 127
3.02029 -1.03022 7.4631
121 146 143
3.05406 -1.03269 7.48101
150 170 177
3.0612 -1.03331 7.48549
154 177 185
3.06835 -1.03393 7.48999
157 181 193
3.06997 -1.03269 7.48101
157 185 199
3.08058 -1.03269 7.48101
151 184 201
3.08774 -1.03331 7.48549
151 184 201
3.0949 -1.03393 7.48999
150 185 204
3.10022 -1.03393 7.48999
146 183 201
3.10739 -1.03455 7.49449
143 180 196
3.15597 -1.03829 7.52161
143 162 177
3.16854 -1.03892 7.52615
150 176 193
3.1773 -1.03829 7.52161
145 174 190
3.18455 -1.03892 7.52615
145 174 190
3.19182 -1.03955 7.53069
132 161 175
3.17822 -1.02653 7.4364
140 168 172
3.18539 -1.02714 7.44084
143 171 174
3.19257 -1.02776 7.44528
143 171 174
3.19976 -1.02837 7.44973
148 176 179
3.20313 -1.02776 7.44528
152 180 184
3.21032 -1.02837 7.44973
153 182 186
3.2281 -1.02899 7.45418
144 173 181
3.23532 -1.0296 7.45864
144 173 181
3.24254 -1.03022 7.4631
140 169 177
3.24978 -1.03083 7.46757
138 165 174
3.25507 -1.03083 7.46757
139 161 172
3.26232 -1.03145 7.47204
143 163 174
3.23125 -1.01503 7.3531
144 176 189
3.23265 -1.01384 7.34444
145 181 195
3.23977 -1.01444 7.34877
150 187 205
3.24498 -1.01444 7.34877
157 196 213
3.2521 -1.01503 7.3531
165 200 220
3.25924 -1.01563 7.35744
164 196 217
3.26445 -1.01563 7.35744
158 186 207
3.2716 -1.01623 7.36178
158 186 207
3.27876 -1.01683 7.36613
147 174 195
3.29115 -1.01743 7.37048
130 157 178
3.29832 -1.01803 7.37484
131 159 181
3.30355 -1.01803 7.37484
137 168 189
3.31074 -1.01864 7.37921
150 181 202
3.31793 -1.01924 7.38357
150 181 202
3.32317 -1.01924 7.38357
156 189 208
3.33037 -1.01984 7.38795
151 184 201
3.33167 -1.01864 7.37921
135 168 183
3.31986 -1.01027 7.31859
109 137 141
3.327 -1.01086 7.32288
109 137 141
3.33415 -1.01146 7.32719
111 137 138
3.34131 -1.01205 7.33149
116 140 142
3.34455 -1.01146 7.32719
116 140 142
3.35171 -1.01205 7.33149
115 139 143
3.35888 -1.01265 7.3358
114 139 143
3.36606 -1.01324 7.34012
114 139 143
3.37846 -1.01384 7.34444
108 135 142
3.38566 -1.01444 7.34877
109 133 143
3.39087 -1.01444 7.34877
109 133 143
3.46863 -1.02045 7.39233
136 178 218
3.47593 -1.02105 7.39671
154 197 239
3.48324 -1.02166 7.4011
161 206 248
3.49056 -1.02227 7.40549
159 206 248
3.421 -0.997394 7.22531
151 200 241
3.43323 -0.997972 7.2295
150 197 239
3.44035 -0.99855 7.23369
154 199 240
3.44548 -0.99855 7.23369
158 200 240
3.45261 -0.99913 7.23789
156 194 231
3.45975 -0.99971 7.2421
156 194 231
3.47406 -1.00087 7.25052
136 167 195
3.43724 -0.988801 7.16307
122 150 171
3.4443 -0.98937 7.16719
115 141 154
3.45136 -0.989938 7.17131
116 141 146
3.45843 -0.990508 7.17543
116 141 146
3.46153 -0.989938 7.17131
121 145 145
3.46861 -0.990508 7.17543
126 148 146
3.4757 -0.991078 7.17956
127 149 146
3.48079 -0.991078 7.17956
128 148 146
3.48789 -0.991649 7.1837
130 150 148
3.49499 -0.99222 7.18784
131 151 149
3.50211 -0.992793 7.19198
131 151 149
3.50721 -0.992793 7.19198
135 156 151
3.54393 -0.994513 7.20445
118 142 146
3.55109 -0.995088 7.20861
117 140 146
3.58286 -0.996816 7.22113
107 137 148
3.59006 -0.997394 7.22531
109 141 156
3.59727 -0.997972 7.2295
112 144 165
3.60031 -0.997394 7.22531
112 148 174
3.60752 -0.997972 7.2295
114 150 182
3.61474 -0.99855 7.23369
114 150 182
