ply
format ascii 1.0
element vertex 2698
property float x
property float y
property float z
property uchar red
property uchar green
property uchar blue
end_header
10.3013 3.37433 25.4984
83 229 254
10.34 3.38107 25.5493
82 239 255
10.8025 3.43599 25.9643
136 255 255
10.8103 3.41519 25.8071
151 255 255
10.8505 3.42209 25.8593
151 255 255
10.8908 3.42903 25.9117
149 254 255
10.8835 3.41519 25.8071
148 255 255
10.9018 3.41519 25.8071
140 255 255
10.9421 3.42209 25.8593
135 255 254
10.9089 3.39464 25.6518
131 255 255
10.9491 3.40146 25.7034
127 255 254
10.9415 3.38784 25.6005
117 255 253
10.8834 3.34764 25.2967
122 255 253
10.8798 3.34103 25.2467
133 255 254
10.8763 3.33445 25.197
147 255 253
10.8022 3.29549 24.9026
175 255 255
9.88571 4.19202 31.8479
139 255 255
9.93303 4.20248 31.9274
148 255 255
11.181 4.4467 33.7828
47 112 180
11.2346 4.45848 33.8723
46 117 183
11.2885 4.47032 33.9622
51 120 189
11.3307 4.45848 33.8723
43 107 179
11.3247 4.4467 33.7828
44 104 177
11.3787 4.45848 33.8723
44 102 176
11.4027 4.45848 33.8723
46 102 177
11.4571 4.47032 33.9622
47 103 178
11.6877 4.49418 34.1436
28 98 170
11.7433 4.50621 34.235
32 100 173
11.8161 4.50621 34.235
46 112 188
11.8087 4.49418 34.1436
48 111 190
11.9222 4.48222 34.0527
46 112 190
11.9782 4.49418 34.1436
46 112 190
11.9311 4.45848 33.8723
44 110 186
11.9868 4.47032 33.9622
40 106 182
11.9954 4.4467 33.7828
23 94 172
11.7062 4.28812 32.5781
70 182 248
11.7592 4.29907 32.6613
87 212 255
11.8126 4.31008 32.7449
104 239 255
11.8662 4.32114 32.8289
104 239 255
11.7091 4.2556 32.331
109 251 255
11.6665 4.22357 32.0876
118 255 255
11.7186 4.23419 32.1684
112 254 255
11.5098 4.15068 31.5338
104 253 255
11.5607 4.16093 31.6118
93 255 255
11.3693 4.06057 30.8493
93 251 252
11.1706 3.97429 30.1938
119 253 254
11.2185 3.9837 30.2653
132 255 255
11.1346 3.94634 29.9815
143 255 255
11.182 3.95561 30.0519
143 255 255
11.2297 3.96493 30.1227
151 255 255
11.0849 3.89161 29.5656
167 255 255
11.1316 3.90062 29.6341
169 255 255
11.1785 3.90968 29.7029
167 255 255
11.1221 3.88263 29.4974
161 255 255
11.0116 3.82963 29.0948
151 255 255
11.0573 3.83837 29.1611
141 255 255
11.1033 3.84714 29.2278
129 255 254
11.0987 3.83837 29.1611
117 255 255
10.9693 3.78656 28.7676
102 254 255
11.0145 3.7951 28.8324
94 254 252
11.0599 3.80367 28.8976
94 254 252
10.9524 3.7528 28.5111
108 253 250
10.9971 3.76118 28.5748
124 253 249
10.3788 3.36969 25.6005
68 240 254
10.4752 3.38323 25.7034
84 253 255
10.5146 3.39005 25.7551
100 254 254
10.5299 3.38323 25.7034
110 255 252
10.5694 3.39005 25.7551
107 253 252
10.609 3.39689 25.8071
107 253 252
10.6488 3.40376 25.8593
98 252 252
10.7771 3.40376 25.8593
141 255 255
10.8173 3.41065 25.9117
151 255 255
10.8103 3.39689 25.8071
159 254 255
10.8505 3.40376 25.8593
159 254 255
10.9055 3.40376 25.8593
151 255 253
10.8725 3.37645 25.6518
138 254 254
10.9126 3.38323 25.7034
136 254 254
10.9089 3.37645 25.6518
137 255 255
10.9491 3.38323 25.7034
134 255 254
10.9415 3.36969 25.6005
129 255 253
10.9817 3.37645 25.6518
129 255 253
10.9778 3.36969 25.6005
128 255 255
10.996 3.36969 25.6005
124 255 255
10.905 3.3363 25.3468
121 255 253
10.8977 3.32313 25.2467
136 255 254
9.81611 4.15908 31.7688
97 247 255
9.86313 4.16944 31.8479
131 255 255
9.95789 4.19031 32.0073
153 255 255
9.92873 4.15908 31.7688
137 255 255
9.97604 4.16944 31.8479
122 254 255
10.0236 4.17985 31.9274
122 254 255
11.181 4.42275 33.7828
38 105 173
11.2346 4.43446 33.8723
46 117 183
11.2232 4.41109 33.6938
38 107 176
11.2768 4.42275 33.7828
38 105 176
11.4988 4.43446 33.8723
45 105 175
11.811 4.43446 33.8723
45 111 189
11.8664 4.44623 33.9622
46 112 190
11.9222 4.45807 34.0527
46 112 190
11.9311 4.43446 33.8723
42 108 184
11.6765 4.25419 32.4953
79 195 255
11.7293 4.26502 32.5781
92 221 255
11.7824 4.27591 32.6613
100 243 255
11.8358 4.28686 32.7449
100 243 255
11.8217 4.26502 32.5781
108 255 255
11.6958 4.21139 32.1684
111 255 255
11.7482 4.222 32.2495
109 254 255
11.5607 4.13852 31.6118
99 255 254
11.6118 4.14877 31.6901
92 255 255
11.3693 4.0387 30.8493
92 252 252
11.1706 3.95288 30.1938
116 254 255
11.2185 3.96224 30.2653
130 255 255
11.1346 3.92508 29.9815
141 255 255
11.182 3.93431 30.0519
141 255 255
11.2297 3.94357 30.1227
150 255 254
11.0849 3.87064 29.5656
170 255 255
11.1316 3.87961 29.6341
171 255 255
11.1785 3.88862 29.7029
167 255 255
10.9693 3.76617 28.7676
99 254 255
11.0145 3.77466 28.8324
99 254 255
11.0599 3.78319 28.8976
90 254 253
10.9524 3.73258 28.5111
107 253 250
10.9971 3.74092 28.5748
125 254 250
10.4514 3.35154 25.6005
99 255 254
10.609 3.37859 25.8071
107 255 254
10.6028 3.36501 25.7034
99 255 254
10.6424 3.37179 25.7551
98 254 253
10.6392 3.36501 25.7034
97 253 252
10.7771 3.38542 25.8593
132 255 253
10.8173 3.39228 25.9117
145 255 255
10.8138 3.38542 25.8593
152 254 255
10.8103 3.37859 25.8071
160 254 254
10.8505 3.38542 25.8593
160 254 254
10.8688 3.38542 25.8593
162 255 255
10.9092 3.39228 25.9117
158 255 255
10.9055 3.38542 25.8593
151 255 253
10.8798 3.37179 25.7551
150 255 254
10.8326 3.35154 25.6005
146 255 255
10.8725 3.35826 25.6518
146 255 255
10.9126 3.36501 25.7034
146 255 255
10.8871 3.35154 25.6005
146 255 255
10.9271 3.35826 25.6518
144 255 253
10.9415 3.35154 25.6005
138 255 251
10.9817 3.35826 25.6518
138 255 251
10.9559 3.34484 25.5493
133 255 254
10.996 3.35154 25.6005
123 255 255
10.9447 3.32492 25.3971
109 255 252
10.8692 3.28577 25.0981
147 255 255
10.9012 3.27933 25.0489
175 255 254
9.81611 4.13655 31.7688
111 255 255
9.86313 4.14686 31.8479
131 255 255
9.95789 4.16761 32.0073
151 255 255
10.0056 4.17807 32.0876
138 255 255
9.92873 4.13655 31.7688
119 254 255
11.181 4.39879 33.7828
31 98 166
11.2346 4.41044 33.8723
33 104 168
11.2232 4.3872 33.6938
32 99 170
11.2768 4.39879 33.7828
33 99 173
11.3787 4.41044 33.8723
63 121 195
11.433 4.42215 33.9622
71 127 201
11.4876 4.43393 34.0527
67 124 195
11.4988 4.41044 33.8723
50 110 180
11.5228 4.41044 33.8723
45 108 177
11.5775 4.42215 33.9622
43 107 178
11.9311 4.41044 33.8723
43 109 187
11.9877 4.3872 33.6938
34 111 193
12.0672 4.39879 33.7828
28 119 210
12.1232 4.41044 33.8723
41 141 227
11.6765 4.23115 32.4953
88 210 255
11.7293 4.24192 32.5781
100 234 255
11.7824 4.25276 32.6613
102 249 255
11.8358 4.26364 32.7449
102 249 255
11.8217 4.24192 32.5781
104 254 252
11.6958 4.18858 32.1684
107 255 252
11.7482 4.19914 32.2495
111 255 255
11.712 4.17807 32.0876
109 255 255
11.5607 4.11611 31.6118
106 254 255
11.6118 4.12631 31.6901
101 255 255
11.5708 4.09586 31.4563
91 254 253
11.3693 4.01682 30.8493
97 251 251
11.1706 3.93147 30.1938
120 254 255
11.1346 3.90383 29.9815
142 255 254
11.182 3.913 30.0519
142 255 254
11.2297 3.92221 30.1227
151 255 254
11.0573 3.79701 29.1611
132 255 255
11.1033 3.80569 29.2278
120 255 255
11.0987 3.79701 29.1611
107 255 255
10.9693 3.74577 28.7676
94 254 254
11.0145 3.75421 28.8324
94 254 254
11.0599 3.7627 28.8976
87 253 253
10.9524 3.71237 28.5111
108 254 253
10.4487 3.32673 25.5493
109 255 252
10.5451 3.34007 25.6518
113 255 254
10.7155 3.35352 25.7551
112 252 253
10.7554 3.36029 25.8071
122 255 254
10.8138 3.36709 25.8593
146 254 255
10.8103 3.36029 25.8071
155 255 255
10.8505 3.36709 25.8593
155 255 255
10.8469 3.36029 25.8071
159 255 255
10.8871 3.36709 25.8593
157 255 254
10.9276 3.37391 25.9117
152 255 253
10.8798 3.35352 25.7551
150 255 254
10.8326 3.33339 25.6005
146 255 255
10.8291 3.32673 25.5493
154 255 255
10.8689 3.33339 25.6005
154 255 255
10.8871 3.33339 25.6005
153 255 255
10.9084 3.2744 25.1474
150 255 255
10.9048 3.26797 25.0981
162 255 255
10.9012 3.26157 25.0489
171 255 255
9.79178 4.10384 31.6901
120 255 255
9.83863 4.11403 31.7688
143 255 255
9.88368 4.11403 31.7688
144 255 255
9.93088 4.12427 31.8479
127 254 255
11.2232 4.36331 33.6938
32 99 170
11.763 4.38642 33.8723
55 121 197
11.811 4.38642 33.8723
51 118 196
11.8664 4.39807 33.9622
49 116 195
11.9222 4.40978 34.0527
49 116 195
11.883 4.38642 33.8723
49 114 196
11.9311 4.38642 33.8723
44 106 189
11.9791 4.38642 33.8723
40 103 182
11.9323 4.35185 33.6053
37 106 184
11.9877 4.36331 33.6938
34 111 193
12.0672 4.37484 33.7828
27 126 220
11.8217 4.21882 32.5781
108 254 251
11.5708 4.07355 31.4563
99 253 253
11.342 3.98534 30.775
104 252 252
11.1229 3.90086 30.1227
113 253 252
11.1706 3.91007 30.1938
125 255 253
11.0873 3.87349 29.9113
136 255 255
11.1346 3.88257 29.9815
136 255 255
11.182 3.89169 30.0519
146 255 255
11.2297 3.90086 30.1227
155 255 253
11.0849 3.82872 29.5656
173 254 255
11.1316 3.83759 29.6341
172 255 255
11.1785 3.8465 29.7029
166 255 255
11.1221 3.81988 29.4974
157 255 255
11.0665 3.79364 29.2947
149 255 255
11.0573 3.77634 29.1611
126 254 255
11.0987 3.77634 29.1611
101 255 255
10.9693 3.72537 28.7676
90 252 254
11.0145 3.73377 28.8324
90 252 254
11.0599 3.74221 28.8976
85 250 252
10.9524 3.69215 28.5111
109 253 253
10.5422 3.31523 25.6005
122 255 255
10.5997 3.32188 25.6518
130 255 255
10.6392 3.32856 25.7034
129 255 255
10.7155 3.33526 25.7551
108 254 254
10.7554 3.34199 25.8071
113 255 255
10.7894 3.30202 25.4984
153 255 255
10.8291 3.30861 25.5493
154 255 255
10.8689 3.31523 25.6005
162 255 255
10.8871 3.31523 25.6005
161 255 255
10.9271 3.32188 25.6518
157 255 255
10.8798 3.30202 25.4984
153 255 255
10.9484 3.29545 25.4477
88 253 249
10.9447 3.2889 25.3971
76 249 247
10.9084 3.25657 25.1474
144 255 255
10.9048 3.25018 25.0981
157 255 255
10.9012 3.24381 25.0489
167 255 255
10.9404 3.25018 25.0981
167 255 255
9.65406 4.06124 31.5338
49 224 251
9.70034 4.07128 31.6118
58 235 253
9.79178 4.08137 31.6901
129 255 255
9.83863 4.0915 31.7688
146 255 255
9.88368 4.0915 31.7688
144 255 255
9.93088 4.10169 31.8479
108 247 252
10.3337 4.16391 32.331
92 217 255
11.4027 4.36241 33.8723
61 119 192
11.3665 4.33942 33.6938
59 117 190
11.4205 4.35088 33.7828
59 117 190
11.4988 4.36241 33.8723
52 114 187
11.4924 4.35088 33.7828
53 117 191
11.5708 4.36241 33.8723
45 111 187
11.787 4.36241 33.8723
52 119 197
11.9877 4.33942 33.6938
41 117 201
11.6239 4.17446 32.4129
72 207 255
11.6765 4.18506 32.4953
100 239 255
11.7686 4.18506 32.4953
115 255 250
11.6535 4.11193 31.9274
119 255 255
11.6697 4.10169 31.8479
112 254 255
11.5201 4.04131 31.3791
106 254 254
11.5708 4.05125 31.4563
108 254 253
11.1229 3.8795 30.1227
122 255 254
11.1706 3.88866 30.1938
133 255 254
11.0873 3.85228 29.9113
143 255 255
11.1346 3.86131 29.9815
143 255 255
11.182 3.87038 30.0519
152 255 255
11.2297 3.8795 30.1227
160 255 255
11.2459 3.87038 30.0519
170 254 255
11.0849 3.80775 29.5656
173 254 255
11.1316 3.81657 29.6341
171 255 255
11.1785 3.82544 29.7029
164 255 255
11.0665 3.77286 29.2947
145 255 254
11.0573 3.75566 29.1611
126 254 255
11.0528 3.74712 29.0948
111 253 255
11.0987 3.75566 29.1611
100 254 255
11.1448 3.76424 29.2278
100 254 255
11.0145 3.71333 28.8324
89 251 253
11.0599 3.72172 28.8976
86 250 252
10.371 3.2774 25.4477
76 238 249
10.4098 3.28394 25.4984
90 249 252
10.5422 3.29708 25.6005
125 255 255
10.5603 3.29708 25.6005
131 255 255
10.5997 3.3037 25.6518
136 255 255
10.6392 3.31034 25.7034
133 255 255
10.7155 3.317 25.7551
101 255 253
10.7702 3.317 25.7551
124 255 255
10.8103 3.32369 25.8071
124 255 255
10.8505 3.33042 25.8593
132 254 255
10.8469 3.32369 25.8071
139 253 254
10.8871 3.33042 25.8593
144 252 252
10.7963 3.29708 25.6005
148 252 251
10.8362 3.3037 25.6518
156 255 255
10.7894 3.28394 25.4984
159 255 255
10.8291 3.2905 25.5493
162 255 255
10.8689 3.29708 25.6005
162 255 255
10.8871 3.29708 25.6005
163 254 255
10.8798 3.28394 25.4984
156 254 255
10.9197 3.2905 25.5493
156 254 255
10.9484 3.2774 25.4477
83 252 249
10.9447 3.27089 25.3971
69 248 245
10.9845 3.2774 25.4477
78 247 250
10.8941 3.24512 25.197
98 253 255
10.9084 3.23874 25.1474
137 255 255
10.9226 3.23238 25.0981
159 255 254
10.9619 3.23874 25.1474
159 255 254
11.0013 3.24512 25.197
168 254 255
9.65406 4.03888 31.5338
71 242 255
9.70034 4.04886 31.6118
87 249 255
9.79178 4.0589 31.6901
136 255 255
9.83863 4.06898 31.7688
146 255 255
9.88571 4.07911 31.8479
147 255 255
11.271 4.31553 33.6938
48 106 180
11.3247 4.32693 33.7828
52 110 183
11.3726 4.32693 33.7828
50 110 182
11.3665 4.31553 33.6938
48 110 183
11.4205 4.32693 33.7828
48 110 183
11.4988 4.33839 33.8723
48 114 190
11.8905 4.34991 33.9622
36 104 187
11.883 4.33839 33.8723
35 103 188
11.9791 4.33839 33.8723
56 117 200
11.6535 4.08929 31.9274
123 255 255
11.7054 4.09953 32.0073
121 255 255
11.6697 4.07911 31.8479
117 255 255
11.5201 4.01906 31.3791
113 255 255
11.1229 3.85814 30.1227
131 255 255
11.1706 3.86725 30.1938
142 255 255
11.0873 3.83107 29.9113
151 255 255
11.1346 3.84005 29.9815
151 255 255
11.0849 3.78679 29.5656
171 255 255
11.1316 3.79556 29.6341
167 255 255
11.1785 3.80438 29.7029
162 255 255
11.1478 3.78679 29.5656
153 255 255
11.0573 3.73498 29.1611
124 254 254
11.0528 3.72649 29.0948
111 253 255
11.0987 3.73498 29.1611
105 255 255
11.1448 3.74352 29.2278
105 255 255
11.0145 3.69288 28.8324
94 252 253
11.0599 3.70123 28.8976
91 250 253
10.5603 3.27893 25.6005
123 255 255
10.5997 3.28551 25.6518
128 255 255
10.6392 3.29211 25.7034
126 255 255
10.6543 3.28551 25.6518
101 255 253
10.6939 3.29211 25.7034
89 255 253
10.7702 3.29874 25.7551
114 255 255
10.8103 3.3054 25.8071
114 255 255
10.8505 3.31208 25.8593
127 255 255
10.8469 3.3054 25.8071
135 253 255
10.8871 3.31208 25.8593
142 254 255
10.7963 3.27893 25.6005
152 255 255
10.8362 3.28551 25.6518
157 255 255
10.8508 3.27893 25.6005
165 255 255
10.8907 3.28551 25.6518
165 255 255
10.8871 3.27893 25.6005
163 254 255
10.8401 3.25936 25.4477
163 254 255
10.8798 3.26586 25.4984
161 254 255
10.9197 3.27238 25.5493
161 254 255
11.0013 3.22725 25.197
156 254 253
10.9975 3.22091 25.1474
164 254 254
9.83863 4.04645 31.7688
137 255 255
9.88571 4.05653 31.8479
126 255 255
9.88368 4.04645 31.7688
106 248 252
10.0009 4.06666 31.9274
110 255 255
10.0487 4.07683 32.0073
122 255 255
11.0693 4.26915 33.5172
38 104 180
11.1222 4.28037 33.6053
38 105 184
11.1168 4.26915 33.5172
37 104 183
11.271 4.29164 33.6938
48 106 180
11.3247 4.30298 33.7828
49 107 180
11.3726 4.30298 33.7828
43 105 180
11.4988 4.31437 33.8723
43 110 189
11.763 4.31437 33.8723
53 116 196
11.787 4.31437 33.8723
44 109 191
11.7798 4.30298 33.7828
37 103 189
11.835 4.31437 33.8723
37 103 189
11.8905 4.32583 33.9622
32 100 185
11.883 4.31437 33.8723
31 101 186
11.9235 4.30298 33.7828
59 121 206
11.9791 4.31437 33.8723
61 121 209
11.98 4.28037 33.6053
26 126 214
11.6698 4.12849 32.4129
123 255 255
11.7225 4.13898 32.4953
123 255 255
11.7755 4.14953 32.5781
134 255 255
11.7686 4.13898 32.4953
139 255 255
11.8217 4.14953 32.5781
138 255 255
11.6535 4.06666 31.9274
126 255 255
11.7054 4.07683 32.0073
122 255 255
11.6697 4.05653 31.8479
118 255 254
11.5484 4.00664 31.4563
114 255 255
11.5993 4.01652 31.5338
117 255 255
11.1541 3.85494 30.2653
126 254 255
11.1229 3.83678 30.1227
137 255 255
11.1706 3.84584 30.1938
147 255 255
11.2185 3.85494 30.2653
147 255 255
11.1346 3.81879 29.9815
156 255 255
11.182 3.82777 30.0519
163 255 255
11.2297 3.83678 30.1227
167 255 255
11.064 3.76583 29.5656
170 255 255
11.1316 3.77455 29.6341
166 255 255
11.1785 3.78332 29.7029
160 255 255
11.1478 3.76583 29.5656
153 255 253
11.0116 3.70586 29.0948
137 255 254
11.0573 3.71431 29.1611
128 254 253
11.0528 3.70586 29.0948
115 253 255
11.0987 3.71431 29.1611
105 255 255
11.1448 3.7228 29.2278
111 255 255
11.0145 3.67244 28.8324
100 254 254
11.0599 3.68074 28.8976
97 252 254
11.0305 3.66418 28.7676
104 252 254
10.4071 3.24131 25.4477
83 253 253
10.4459 3.24778 25.4984
83 253 253
10.4793 3.24131 25.4477
98 253 255
10.5182 3.24778 25.4984
101 253 255
10.5574 3.25427 25.5493
103 255 255
10.5966 3.26078 25.6005
103 255 255
10.6148 3.26078 25.6005
95 255 255
10.6543 3.26732 25.6518
86 255 253
10.7304 3.27389 25.7034
89 252 251
10.7702 3.28048 25.7551
108 254 254
10.8103 3.2871 25.8071
108 254 254
10.8068 3.28048 25.7551
125 255 255
10.8033 3.27389 25.7034
137 255 255
10.7963 3.26078 25.6005
152 255 255
10.8362 3.26732 25.6518
156 255 255
10.8326 3.26078 25.6005
162 255 255
10.8907 3.26732 25.6518
163 254 255
10.8871 3.26078 25.6005
162 253 255
10.8401 3.24131 25.4477
163 254 255
10.8798 3.24778 25.4984
161 254 255
10.9447 3.23488 25.3971
85 251 249
10.9156 3.21572 25.2467
97 254 255
10.9552 3.22208 25.2967
109 254 255
10.9299 3.20939 25.197
117 252 255
10.8834 3.19053 25.0489
126 254 253
10.9226 3.19679 25.0981
135 255 253
10.9619 3.20308 25.1474
135 255 253
10.9582 3.19679 25.0981
143 255 254
10.9975 3.20308 25.1474
151 255 254
9.53879 3.96484 31.3023
53 245 255
9.86313 4.03395 31.8479
117 255 255
10.0511 4.06431 32.0876
124 255 255
10.0992 4.07453 32.1684
136 255 255
10.0714 4.05414 32.0073
145 255 255
10.1194 4.06431 32.0876
146 255 255
11.0693 4.24538 33.5172
40 106 182
11.3247 4.27902 33.7828
49 107 180
11.5468 4.29036 33.8723
40 108 193
11.6015 4.30175 33.9622
37 103 189
11.7488 4.26775 33.6938
36 102 189
11.8037 4.27902 33.7828
36 102 189
11.98 4.25654 33.6053
41 152 223
11.5881 4.08481 32.2495
114 255 255
11.6403 4.09513 32.331
114 255 255
11.7686 4.11594 32.4953
147 255 255
11.8217 4.12643 32.5781
143 255 255
11.1229 3.81542 30.1227
139 254 255
11.1706 3.82443 30.1938
150 255 255
11.2185 3.83348 30.2653
150 255 255
11.1346 3.79753 29.9815
160 255 255
11.182 3.80646 30.0519
165 255 255
11.2297 3.81542 30.1227
168 255 255
11.2776 3.82443 30.1938
168 255 255
11.064 3.74486 29.5656
168 255 255
11.1316 3.75354 29.6341
164 255 255
11.1785 3.76226 29.7029
161 255 255
11.1478 3.74486 29.5656
156 255 254
11.0116 3.68523 29.0948
141 255 253
11.0573 3.69363 29.1611
132 255 253
11.0528 3.68523 29.0948
121 255 254
11.0987 3.69363 29.1611
111 255 255
11.1448 3.70207 29.2278
111 255 255
10.9897 3.64378 28.7676
111 255 255
11.0349 3.652 28.8324
106 255 255
11.0305 3.64378 28.7676
111 253 254
10.928 3.60326 28.4476
128 254 253
10.7304 3.25566 25.7034
85 251 251
10.7702 3.26222 25.7551
85 251 251
10.8033 3.25566 25.7034
142 255 255
10.7963 3.24263 25.6005
155 255 255
10.8326 3.24263 25.6005
156 255 254
10.8508 3.24263 25.6005
157 255 254
10.8907 3.24913 25.6518
156 254 255
10.9559 3.23615 25.5493
154 255 255
10.9702 3.2297 25.4984
116 255 252
10.9447 3.21687 25.3971
104 254 252
10.9845 3.22327 25.4477
102 254 255
10.9156 3.19782 25.2467
104 255 255
10.9552 3.20415 25.2967
106 254 255
10.9299 3.19152 25.197
107 251 251
10.8834 3.17277 25.0489
115 254 251
10.9226 3.17899 25.0981
115 254 251
10.9619 3.18524 25.1474
122 255 252
10.9367 3.17277 25.0489
133 255 255
10.9186 3.142 24.806
171 255 255
9.53879 3.94264 31.3023
67 252 255
10.0511 4.04156 32.0876
124 255 255
10.0992 4.05172 32.1684
148 255 255
10.0714 4.03144 32.0073
155 255 255
10.1194 4.04156 32.0876
155 255 255
11.4748 4.26634 33.8723
40 111 193
11.4924 4.25507 33.7828
42 112 198
11.5468 4.26634 33.8723
41 108 195
11.6015 4.27767 33.9622
37 103 189
11.9791 4.26634 33.8723
55 125 213
11.7333 4.14557 32.9134
72 189 242
11.787 4.15626 32.9983
84 223 255
11.5881 4.06194 32.2495
114 255 255
11.6403 4.07221 32.331
123 253 253
11.6928 4.08253 32.4129
138 255 255
11.7456 4.0929 32.4953
152 255 255
11.7686 4.0929 32.4953
154 255 255
11.8217 4.10333 32.5781
148 255 255
11.7779 4.07221 32.331
121 253 255
11.6535 4.02138 31.9274
115 255 255
11.7054 4.03144 32.0073
110 255 253
11.5484 3.96204 31.4563
107 255 255
11.5993 3.9718 31.5338
111 255 255
11.1229 3.79407 30.1227
134 255 255
11.1706 3.80302 30.1938
148 255 255
11.2185 3.81202 30.2653
148 255 255
11.1346 3.77628 29.9815
156 255 255
11.182 3.78515 30.0519
162 255 255
11.2297 3.79407 30.1227
166 255 255
11.2776 3.80302 30.1938
168 255 255
11.064 3.7239 29.5656
169 255 255
11.0849 3.7239 29.5656
168 255 255
11.1316 3.73253 29.6341
167 255 254
11.1785 3.7412 29.7029
163 255 254
11.1478 3.7239 29.5656
159 255 253
11.0277 3.65628 29.0288
127 255 254
11.0734 3.6646 29.0948
127 255 254
11.1194 3.67295 29.1611
116 255 255
10.9897 3.62338 28.7676
111 255 255
11.0305 3.62338 28.7676
115 253 253
10.928 3.58309 28.4476
131 254 252
10.9726 3.59107 28.5111
151 255 254
10.7634 3.23094 25.6518
131 255 254
10.7385 3.21803 25.5493
148 255 255
10.7782 3.22448 25.6005
156 255 255
10.7963 3.22448 25.6005
156 255 253
10.8326 3.22448 25.6005
149 253 252
10.8291 3.21803 25.5493
147 253 251
10.8401 3.20523 25.4477
164 255 255
10.8798 3.21162 25.4984
164 255 255
10.9702 3.21162 25.4984
131 255 253
10.9447 3.19886 25.3971
120 255 254
10.9845 3.20523 25.4477
115 255 255
10.9156 3.17992 25.2467
110 255 255
10.9552 3.18621 25.2967
106 255 255
10.9299 3.17365 25.197
104 254 252
10.8621 3.14884 25
109 255 252
10.9012 3.15501 25.0489
109 255 252
10.9367 3.15501 25.0489
126 255 255
10.9938 3.1612 25.0981
135 255 254
9.56219 3.93007 31.3791
81 255 255
10.0511 4.01881 32.0876
136 255 255
10.0992 4.02892 32.1684
148 255 255
11.4205 4.23112 33.7828
40 109 187
11.4748 4.24232 33.8723
44 115 197
11.66 4.23112 33.7828
59 118 194
11.8037 4.23112 33.7828
41 105 192
11.8443 4.21997 33.6938
52 128 214
11.8996 4.23112 33.7828
52 129 217
11.8921 4.21997 33.6938
48 128 215
11.9475 4.23112 33.7828
50 127 215
11.68 4.11165 32.8289
93 192 249
11.7333 4.12223 32.9134
110 230 255
11.5881 4.03907 32.2495
123 253 253
11.6403 4.04929 32.331
123 253 253
11.6928 4.05955 32.4129
147 255 255
11.7456 4.06986 32.4953
157 255 255
11.7686 4.06986 32.4953
158 255 255
11.755 4.04929 32.331
136 255 255
11.7779 4.04929 32.331
120 255 255
11.342 3.85441 30.775
115 255 255
11.1229 3.77271 30.1227
127 255 255
11.1346 3.75502 29.9815
150 255 255
11.182 3.76384 30.0519
157 255 255
11.2776 3.78161 30.1938
166 255 255
11.0849 3.70294 29.5656
171 255 255
11.1316 3.71152 29.6341
170 255 255
11.1478 3.70294 29.5656
164 255 255
11.0116 3.64397 29.0948
153 255 253
11.0573 3.65228 29.1611
143 255 254
11.0277 3.6357 29.0288
133 255 254
11.0734 3.64397 29.0948
133 255 254
10.9897 3.60299 28.7676
114 255 255
10.9078 3.56292 28.4476
119 255 255
10.9524 3.57086 28.5111
135 255 254
10.3991 3.16827 25.2967
52 250 253
10.5154 3.18718 25.4477
59 253 255
10.5514 3.18718 25.4477
63 252 255
10.5906 3.19354 25.4984
62 254 255
10.6086 3.19354 25.4984
56 254 255
10.6479 3.19992 25.5493
57 249 250
10.6448 3.19354 25.4984
79 251 251
10.6842 3.19992 25.5493
79 251 251
10.7023 3.19992 25.5493
108 255 255
10.7419 3.20632 25.6005
130 255 255
10.7385 3.19992 25.5493
146 255 255
10.7782 3.20632 25.6005
155 255 255
10.7748 3.19992 25.5493
154 255 251
10.7929 3.19992 25.5493
152 255 255
10.8326 3.20632 25.6005
145 254 251
10.8006 3.18086 25.3971
153 255 255
10.8401 3.18718 25.4477
163 255 255
10.8798 3.19354 25.4984
163 255 255
10.9702 3.19354 25.4984
141 255 255
10.9447 3.18086 25.3971
132 255 254
10.9845 3.18718 25.4477
124 255 255
10.9156 3.16202 25.2467
115 255 254
10.8621 3.13111 25
106 255 253
10.9012 3.13725 25.0489
106 255 253
10.9189 3.13725 25.0489
114 255 255
10.9582 3.1434 25.0981
123 255 255
10.9938 3.1434 25.0981
131 254 252
10.99 3.13725 25.0489
136 252 252
11.0077 3.13725 25.0489
148 253 255
9.56219 3.90782 31.3791
93 255 255
10.4978 4.03657 32.4129
79 200 255
10.5475 4.04682 32.4953
79 200 255
11.3904 4.19608 33.6938
43 112 189
11.4444 4.20716 33.7828
46 117 197
11.4382 4.19608 33.6938
51 119 202
11.4924 4.20716 33.7828
53 121 204
11.486 4.19608 33.6938
55 121 205
11.5403 4.20716 33.7828
56 118 205
11.7965 4.19608 33.6938
47 117 205
11.837 4.18505 33.6053
50 131 220
11.8921 4.19608 33.6938
43 129 214
11.7129 4.06749 32.6613
111 250 245
11.7661 4.0779 32.7449
111 250 245
11.6928 4.03657 32.4129
147 255 255
11.7456 4.04682 32.4953
160 255 255
11.7686 4.04682 32.4953
160 255 255
11.8217 4.05713 32.5781
151 255 255
11.755 4.02636 32.331
137 255 255
11.7779 4.02636 32.331
117 255 255
11.6535 3.9761 31.9274
102 255 254
11.7054 3.98605 32.0073
90 255 249
11.6697 3.9662 31.8479
85 254 249
11.1229 3.75135 30.1227
119 255 255
11.1706 3.7602 30.1938
119 255 255
11.182 3.74253 30.0519
149 255 255
11.2297 3.75135 30.1227
155 255 255
11.0175 3.67348 29.4974
163 255 254
11.0384 3.67348 29.4974
167 255 255
11.0849 3.68197 29.5656
173 255 255
11.1316 3.6905 29.6341
175 255 255
10.9909 3.62334 29.0948
164 255 255
11.0116 3.62334 29.0948
157 255 254
11.0573 3.6316 29.1611
147 255 255
11.0277 3.61512 29.0288
137 255 254
11.0734 3.62334 29.0948
137 255 254
10.9447 3.57455 28.703
123 255 255
10.9897 3.58259 28.7676
116 255 255
10.9854 3.57455 28.703
113 255 255
10.9078 3.54275 28.4476
119 255 255
10.3403 3.13792 25.197
67 243 243
10.3786 3.14412 25.2467
58 250 251
10.4171 3.15034 25.2967
60 255 255
10.4557 3.15658 25.3468
59 255 255
10.5125 3.16285 25.3971
60 254 255
10.5514 3.16914 25.4477
61 253 255
10.5485 3.16285 25.3971
60 255 255
10.5875 3.16914 25.4477
54 255 255
10.6056 3.16914 25.4477
55 250 255
10.699 3.17546 25.4984
123 255 255
10.7385 3.1818 25.5493
141 255 255
10.7782 3.18817 25.6005
151 255 255
10.7748 3.1818 25.5493
150 255 252
10.7929 3.1818 25.5493
150 255 254
10.8326 3.18817 25.6005
145 253 253
10.804 3.16914 25.4477
146 254 254
10.9702 3.17546 25.4984
141 255 255
10.9664 3.16914 25.4477
138 255 253
11.0064 3.17546 25.4984
129 255 253
10.9156 3.14412 25.2467
117 255 251
10.9299 3.13792 25.197
101 254 251
10.8834 3.11949 25.0489
105 253 253
10.9226 3.12561 25.0981
105 253 253
10.9189 3.11949 25.0489
114 254 255
10.9938 3.12561 25.0981
131 254 252
10.99 3.11949 25.0489
137 253 252
11.0077 3.11949 25.0489
145 253 255
10.9788 3.10126 24.9026
167 255 255
9.58571 3.89512 31.4563
104 255 254
9.6317 3.90473 31.5338
120 255 255
10.1194 3.9733 32.0876
141 255 255
10.3305 3.99334 32.2495
108 255 255
10.3795 4.00344 32.331
122 255 254
10.4288 4.01358 32.4129
126 255 255
10.4783 4.02378 32.4953
128 255 255
10.4483 4.00344 32.331
118 253 255
10.4978 4.01358 32.4129
97 231 255
10.5475 4.02378 32.4953
97 231 255
10.5974 4.03403 32.5781
70 199 255
11.3904 4.17219 33.6938
43 112 189
11.486 4.17219 33.6938
65 130 212
11.5642 4.18321 33.7828
69 130 211
11.5511 4.16123 33.6053
65 127 202
11.7965 4.17219 33.6938
50 121 209
11.8517 4.18321 33.7828
51 126 219
11.7402 4.08607 32.9983
151 253 255
11.7941 4.09664 33.0837
143 255 255
11.7225 4.02378 32.4953
148 253 255
11.7755 4.03403 32.5781
160 255 255
11.7686 4.02378 32.4953
161 255 255
11.8217 4.03403 32.5781
152 255 255
11.8448 4.03403 32.5781
139 255 255
11.7779 4.00344 32.331
118 255 255
11.6535 3.95347 31.9274
99 255 252
11.7054 3.96336 32.0073
84 254 251
11.6697 3.94362 31.8479
80 254 252
11.5201 3.88557 31.3791
87 253 251
11.2185 3.74764 30.2653
124 254 254
11.0384 3.65257 29.4974
165 255 255
11.0849 3.66101 29.5656
171 255 255
11.1316 3.66949 29.6341
174 255 255
11.1012 3.65257 29.4974
173 255 255
11.0116 3.60271 29.0948
158 255 255
11.0573 3.61092 29.1611
148 255 255
11.1033 3.61918 29.2278
148 255 255
11.0734 3.60271 29.0948
137 255 255
10.9447 3.5542 28.703
124 254 254
10.9897 3.56219 28.7676
115 253 253
10.5485 3.14484 25.3971
53 254 255
10.5875 3.1511 25.4477
46 250 255
10.6056 3.1511 25.4477
47 245 255
10.6448 3.15738 25.4984
47 245 255
10.7023 3.16369 25.5493
86 254 255
10.6777 3.1511 25.4477
108 255 255
10.7171 3.15738 25.4984
126 255 255
10.7352 3.15738 25.4984
140 255 255
10.7748 3.16369 25.5493
144 255 255
10.7713 3.15738 25.4984
147 255 255
10.7253 3.13861 25.3468
149 255 255
10.7646 3.14484 25.3971
149 254 255
10.804 3.1511 25.4477
151 255 255
10.8006 3.14484 25.3971
153 255 255
10.8401 3.1511 25.4477
158 255 254
10.8798 3.15738 25.4984
158 255 254
10.9702 3.15738 25.4984
146 255 255
10.9664 3.1511 25.4477
138 255 253
10.9189 3.10172 25.0489
119 252 255
10.9582 3.10781 25.0981
130 254 255
10.9975 3.11392 25.1474
136 254 255
10.9938 3.10781 25.0981
139 255 254
10.99 3.10172 25.0489
142 255 253
11.0077 3.10172 25.0489
150 254 255
11.0255 3.10172 25.0489
157 255 255
11.0649 3.10781 25.0981
166 255 254
11.0179 3.08962 24.9512
174 255 254
9.58571 3.87282 31.4563
113 255 254
9.6317 3.88237 31.5338
123 255 255
10.1194 3.95055 32.0876
141 255 255
10.3337 3.98051 32.331
114 255 255
10.4288 3.9906 32.4129
142 255 255
10.7213 4.03147 32.7449
43 158 239
11.4382 4.1483 33.6938
51 122 200
11.432 4.1374 33.6053
58 125 206
11.486 4.1483 33.6938
65 132 213
11.5099 4.1483 33.6938
70 135 217
11.8037 4.15926 33.7828
48 126 208
11.7965 4.1483 33.6938
48 126 211
11.8517 4.15926 33.7828
48 129 218
11.8132 4.1374 33.6053
48 134 221
11.7402 4.06267 32.9983
152 255 255
11.7941 4.07318 33.0837
140 253 255
11.8482 4.08375 33.1695
131 253 255
11.6831 4.01093 32.5781
129 255 254
11.7361 4.02117 32.6613
129 255 254
11.7293 4.01093 32.5781
140 255 255
11.7225 4.00074 32.4953
150 255 255
11.7755 4.01093 32.5781
162 255 255
11.7686 4.00074 32.4953
161 255 255
11.7779 3.98051 32.331
120 255 252
11.7054 3.94067 32.0073
85 253 253
11.6697 3.92104 31.8479
80 254 253
11.5424 3.86332 31.3791
94 254 252
11.182 3.69992 30.0519
135 253 253
11.043 3.64005 29.5656
151 254 253
11.0384 3.63165 29.4974
159 255 254
11.0849 3.64005 29.5656
165 255 255
11.1316 3.64848 29.6341
168 255 255
11.1012 3.63165 29.4974
168 255 255
10.9953 3.59025 29.1611
166 255 255
10.9909 3.58208 29.0948
162 255 255
11.0573 3.59025 29.1611
148 255 255
11.1033 3.59845 29.2278
148 255 255
11.0734 3.58208 29.0948
136 255 255
10.9447 3.53385 28.703
121 253 255
10.9897 3.54179 28.7676
112 252 253
10.9854 3.53385 28.703
109 253 254
10.8595 3.48689 28.3216
118 254 254
10.4144 3.10832 25.2467
65 247 251
10.453 3.11446 25.2967
58 247 251
10.4916 3.12064 25.3468
51 249 252
10.5276 3.12064 25.3468
38 246 255
10.6417 3.13305 25.4477
51 244 253
10.699 3.1393 25.4984
89 255 255
10.6958 3.13305 25.4477
106 255 255
10.7352 3.1393 25.4984
122 255 255
10.7106 3.12683 25.3971
135 255 254
10.7499 3.13305 25.4477
144 254 255
10.7253 3.12064 25.3468
151 255 255
10.7646 3.12683 25.3971
156 255 255
10.804 3.13305 25.4477
157 255 255
10.8006 3.12683 25.3971
157 255 255
10.8401 3.13305 25.4477
157 255 255
10.8798 3.1393 25.4984
158 255 255
10.9341 3.1393 25.4984
152 255 255
10.9304 3.13305 25.4477
150 255 255
10.9702 3.1393 25.4984
146 255 255
10.9664 3.13305 25.4477
141 255 254
10.9299 3.10219 25.197
104 253 251
10.9694 3.10832 25.2467
104 253 251
10.9226 3.09002 25.0981
112 254 255
10.9975 3.09609 25.1474
141 255 255
10.9938 3.09002 25.0981
143 255 255
10.99 3.08396 25.0489
147 255 254
11.0077 3.08396 25.0489
154 255 255
11.0179 3.07193 24.9512
171 255 253
9.56219 3.84107 31.3791
122 255 255
9.60801 3.85052 31.4563
127 255 255
9.83863 3.88877 31.7688
86 249 255
9.88571 3.89846 31.8479
109 255 255
9.93303 3.90819 31.9274
109 255 255
10.0511 3.9278 32.0876
152 255 255
10.0992 3.93768 32.1684
155 255 253
10.7213 4.00825 32.7449
79 202 255
11.3904 4.12441 33.6938
45 116 194
11.4444 4.1353 33.7828
47 118 196
11.4382 4.12441 33.6938
51 122 200
11.5099 4.12441 33.6938
66 135 213
11.6226 4.11357 33.6053
48 127 206
11.6771 4.12441 33.6938
47 130 210
11.7179 4.11357 33.6053
49 136 216
11.7726 4.12441 33.6938
40 129 211
11.6101 4.01854 32.8289
114 222 255
11.6633 4.02888 32.9134
141 250 255
11.71 4.02888 32.9134
150 254 253
11.7636 4.03928 32.9983
143 252 255
11.7755 3.98783 32.5781
161 255 255
11.7686 3.9777 32.4953
161 255 255
11.8448 3.98783 32.5781
142 255 253
11.7779 3.95759 32.331
121 254 251
11.6245 3.89846 31.8479
103 253 251
11.4919 3.83167 31.3023
90 254 255
11.5424 3.84107 31.3791
96 254 253
11.1346 3.66999 29.9815
130 254 254
11.182 3.67861 30.0519
135 253 253
11.1249 3.65286 29.8416
139 253 253
11.0384 3.61074 29.4974
151 255 254
11.0849 3.61908 29.5656
156 255 255
11.1316 3.62747 29.6341
160 255 255
11.1012 3.61074 29.4974
161 255 255
10.9953 3.56957 29.1611
159 255 255
10.9909 3.56145 29.0948
157 255 255
11.0734 3.56145 29.0948
133 255 255
10.9447 3.51349 28.703
119 254 255
10.9897 3.5214 28.7676
108 252 253
10.9608 3.50563 28.6387
106 252 252
10.9078 3.48223 28.4476
113 253 252
10.4144 3.09041 25.2467
78 246 249
10.453 3.09653 25.2967
66 245 250
10.4916 3.10266 25.3468
52 243 251
10.6958 3.11501 25.4477
90 250 248
10.7646 3.10882 25.3971
158 255 255
10.804 3.11501 25.4477
158 255 255
10.8006 3.10882 25.3971
156 255 255
10.8401 3.11501 25.4477
156 255 255
10.8798 3.12122 25.4984
153 255 255
10.9197 3.12746 25.5493
149 255 255
10.8943 3.11501 25.4477
143 255 255
10.9341 3.12122 25.4984
141 254 255
10.9304 3.11501 25.4477
141 255 255
10.9702 3.12122 25.4984
143 255 255
10.9664 3.11501 25.4477
141 255 255
11.0064 3.12122 25.4984
131 255 252
10.9372 3.09653 25.2967
119 254 250
10.9299 3.08433 25.197
108 253 248
10.9694 3.09041 25.2467
108 253 248
10.9226 3.07222 25.0981
112 252 249
10.9619 3.07826 25.1474
121 255 254
10.9582 3.07222 25.0981
133 255 255
10.9975 3.07826 25.1474
140 255 255
10.99 3.0662 25.0489
151 255 253
11.0077 3.0662 25.0489
156 255 253
11.0255 3.0662 25.0489
161 255 252
11.0649 3.07222 25.0981
165 255 253
11.0179 3.05424 24.9512
171 255 254
9.56219 3.81882 31.3791
128 255 255
9.60801 3.82821 31.4563
129 255 255
9.86313 3.87588 31.8479
96 253 255
9.91039 3.88555 31.9274
96 253 255
9.95789 3.89528 32.0073
119 255 255
10.0992 3.91487 32.1684
150 255 254
10.0714 3.89528 32.0073
146 255 255
10.7213 3.98503 32.7449
115 244 255
10.7721 3.99526 32.8289
116 234 255
10.7954 3.99526 32.8289
110 219 255
11.4081 4.08974 33.6053
48 124 202
11.5099 4.10052 33.6938
58 134 210
11.7179 4.08974 33.6053
44 139 223
11.7514 4.06836 33.4296
43 149 209
11.806 4.07903 33.5172
77 185 232
11.5868 3.99526 32.8289
111 219 255
11.5804 3.98503 32.7449
140 250 255
11.6334 3.99526 32.8289
147 255 255
11.71 4.00555 32.9134
149 255 250
11.7265 3.99526 32.8289
141 253 255
11.8056 3.97486 32.6613
156 255 255
11.7686 3.95466 32.4953
157 255 255
11.8217 3.96473 32.5781
153 255 255
11.8448 3.96473 32.5781
142 255 253
11.7779 3.93466 32.331
126 254 253
11.2185 3.68327 30.2653
130 255 255
11.1085 3.64019 29.9113
135 255 255
11.1558 3.64873 29.9815
137 255 255
11.099 3.62325 29.7721
140 255 255
11.0734 3.54082 29.0948
128 255 255
10.965 3.49314 28.703
104 252 254
10.9854 3.49314 28.703
101 251 252
10.8836 3.45438 28.3845
110 252 253
10.6565 3.09082 25.3971
72 251 247
10.6926 3.09082 25.3971
107 253 253
10.6893 3.08469 25.3468
123 253 255
10.7073 3.08469 25.3468
138 253 255
10.7466 3.09082 25.3971
150 255 255
10.7646 3.09082 25.3971
154 255 255
10.804 3.09697 25.4477
154 255 255
10.8006 3.09082 25.3971
149 255 255
10.8401 3.09697 25.4477
149 255 255
10.8798 3.10314 25.4984
142 255 254
10.8943 3.09697 25.4477
128 252 254
10.9086 3.09082 25.3971
129 255 254
10.905 3.08469 25.3468
139 254 255
10.9447 3.09082 25.3971
141 255 255
10.9336 3.07251 25.2467
114 254 251
10.9299 3.06646 25.197
108 253 248
10.9694 3.07251 25.2467
116 252 248
10.9226 3.05442 25.0981
118 253 249
10.9619 3.06043 25.1474
125 255 253
10.9582 3.05442 25.0981
133 255 255
10.9975 3.06043 25.1474
142 255 255
11.0371 3.06646 25.197
147 255 254
11.0077 3.04844 25.0489
157 255 253
11.0255 3.04844 25.0489
160 255 251
11.0649 3.05442 25.0981
163 255 252
11.0179 3.03655 24.9512
167 255 254
11.0571 3.04248 25
167 255 254
10.026 3.87258 32.0073
147 255 255
10.505 3.94163 32.5781
118 252 255
10.555 3.9517 32.6613
118 252 255
10.7213 3.96182 32.7449
140 255 255
11.4796 4.06592 33.6053
51 135 208
11.5381 4.04466 33.4296
58 137 216
11.5921 4.05526 33.5172
52 134 216
11.7179 4.06592 33.6053
44 143 234
11.5277 3.9517 32.6613
139 250 255
11.5804 3.96182 32.7449
151 255 255
11.6334 3.97199 32.8289
148 255 255
11.68 3.97199 32.8289
147 255 252
11.7456 3.93162 32.4953
150 255 254
11.7686 3.93162 32.4953
152 255 255
11.8147 3.93162 32.4953
140 253 251
11.7779 3.91174 32.331
126 254 253
11.6535 3.86291 31.9274
123 255 255
11.6988 3.86291 31.9274
104 253 255
11.0755 3.63599 30.0519
113 255 255
11.1229 3.64456 30.1227
113 255 255
11.1706 3.65316 30.1938
124 255 255
11.1085 3.61899 29.9113
141 255 255
11.1558 3.62747 29.9815
143 255 255
11.099 3.60214 29.7721
144 255 255
11.0594 3.56891 29.4974
139 254 251
11.1059 3.57716 29.5656
138 252 252
11.0734 3.52019 29.0948
122 254 255
10.965 3.47279 28.703
102 252 253
10.9854 3.47279 28.703
98 250 251
10.8836 3.43425 28.3845
108 252 252
10.3684 3.03068 25.0489
76 247 255
10.519 3.04859 25.197
53 249 255
10.5576 3.05461 25.2467
65 254 255
10.6354 3.06672 25.3468
85 255 250
10.6503 3.06065 25.2967
113 255 255
10.6893 3.06672 25.3468
125 255 255
10.7073 3.06672 25.3468
139 255 255
10.7466 3.07281 25.3971
143 255 255
10.7646 3.07281 25.3971
144 255 255
10.8006 3.07281 25.3971
135 255 253
10.8401 3.07892 25.4477
135 255 253
10.8798 3.08506 25.4984
128 254 251
10.8943 3.07892 25.4477
120 250 252
10.8619 3.05461 25.2467
140 255 255
10.9014 3.06065 25.2967
144 255 255
10.9193 3.06065 25.2967
143 255 255
10.9336 3.05461 25.2467
124 254 252
10.9299 3.04859 25.197
116 252 248
10.9694 3.05461 25.2467
116 252 248
10.9226 3.03663 25.0981
118 253 249
10.9582 3.03663 25.0981
141 255 255
10.9975 3.0426 25.1474
144 255 255
11.0371 3.04859 25.197
148 255 255
11.0077 3.03068 25.0489
156 254 255
11.0255 3.03068 25.0489
159 253 253
11.0649 3.03663 25.0981
159 253 253
9.56219 3.77432 31.3791
133 255 255
9.60801 3.7836 31.4563
128 255 255
9.88571 3.83071 31.8479
105 255 255
9.93303 3.84028 31.9274
128 255 255
9.95567 3.84028 31.9274
141 255 254
10.0033 3.84989 32.0073
146 255 253
10.026 3.84989 32.0073
143 255 255
10.0739 3.85955 32.0876
137 255 255
10.1194 3.85955 32.0876
107 255 255
10.3566 3.88882 32.331
152 255 252
10.5244 3.90858 32.4953
106 254 254
10.5743 3.91853 32.5781
102 255 252
10.7213 3.9386 32.7449
160 255 255
10.7446 3.9386 32.7449
166 255 255
10.7954 3.94871 32.8289
164 255 255
11.4621 4.05274 33.6938
42 127 207
11.4258 4.0315 33.5172
46 129 205
11.5804 3.9386 32.7449
148 254 254
11.6334 3.94871 32.8289
152 255 254
11.6268 3.9386 32.7449
149 255 255
11.68 3.94871 32.8289
145 255 252
11.7779 3.88882 32.331
131 255 255
11.6535 3.84028 31.9274
123 255 255
11.6988 3.84028 31.9274
111 253 255
11.293 3.69278 30.7012
105 255 254
11.342 3.70166 30.775
105 255 254
11.1229 3.6232 30.1227
115 255 254
11.0357 3.58103 29.7721
136 255 255
11.0826 3.58938 29.8416
144 255 255
11.1509 3.59778 29.9113
149 255 255
11.013 3.53983 29.4295
142 254 255
11.0594 3.54799 29.4974
137 253 252
11.078 3.50754 29.1611
126 254 255
11.0734 3.49956 29.0948
118 253 255
10.9447 3.45244 28.703
105 253 255
10.9897 3.4602 28.7676
99 253 255
10.9854 3.45244 28.703
98 252 254
10.8836 3.41413 28.3845
108 254 254
10.3684 3.01292 25.0489
92 250 255
10.4065 3.01883 25.0981
66 238 250
10.4448 3.02477 25.1474
57 237 252
10.4421 3.01883 25.0981
60 240 255
10.4804 3.02477 25.1474
60 240 255
10.519 3.03073 25.197
68 248 255
10.5755 3.03671 25.2467
91 255 255
10.6503 3.04272 25.2967
126 255 255
10.6893 3.04875 25.3468
132 255 255
10.6861 3.04272 25.2967
135 255 255
10.7253 3.04875 25.3468
132 255 255
10.8476 3.04272 25.2967
127 253 250
10.844 3.03671 25.2467
135 254 252
10.8619 3.03671 25.2467
143 255 255
10.9226 3.01883 25.0981
129 253 253
10.9582 3.01883 25.0981
144 255 255
10.9975 3.02477 25.1474
146 255 255
11.0371 3.03073 25.197
149 254 255
11.0077 3.01292 25.0489
156 253 255
11.0255 3.01292 25.0489
156 254 255
11.0649 3.01883 25.0981
155 253 254
11.0179 3.00116 24.9512
157 255 254
11.0571 3.00703 25
157 255 254
9.56219 3.75207 31.3791
135 255 255
9.60801 3.7613 31.4563
129 255 255
9.93303 3.81764 31.9274
134 255 255
9.95567 3.81764 31.9274
148 255 254
10.0033 3.82719 32.0073
149 253 252
10.026 3.82719 32.0073
142 254 255
10.0739 3.83679 32.0876
129 253 255
10.122 3.84645 32.1684
114 255 255
10.1194 3.83679 32.0876
104 255 255
10.7446 3.91538 32.7449
173 255 255
10.7954 3.92543 32.8289
164 255 253
11.3782 4.00773 33.5172
32 126 213
11.5034 4.01826 33.6053
38 138 214
11.4545 3.97647 33.2558
51 143 230
11.508 3.98683 33.3424
51 146 236
11.5317 3.98683 33.3424
48 147 240
11.5855 3.99726 33.4296
48 147 240
11.5895 3.96615 33.1695
69 194 248
11.613 3.96615 33.1695
94 220 255
11.6835 3.96615 33.1695
144 253 255
11.7779 3.86589 32.331
136 255 255
11.6535 3.81764 31.9274
132 255 255
11.6407 3.79867 31.7688
115 253 253
11.5201 3.75207 31.3791
107 253 252
11.0968 3.59338 30.0519
120 255 254
11.1443 3.60184 30.1227
130 255 255
11.0357 3.55992 29.7721
140 255 255
11.0826 3.56822 29.8416
146 255 255
11.1509 3.57657 29.9113
150 255 255
11.013 3.51896 29.4295
144 254 255
11.0594 3.52708 29.4974
137 253 253
11.1012 3.52708 29.4974
131 253 254
10.9953 3.48687 29.1611
131 255 255
11.078 3.48687 29.1611
126 254 255
11.0734 3.47893 29.0948
118 254 254
10.9447 3.43209 28.703
106 254 255
10.9897 3.43981 28.7676
99 253 255
10.5368 3.01286 25.197
85 249 255
10.5755 3.01881 25.2467
97 252 255
10.6113 3.01881 25.2467
127 255 255
10.7433 3.03078 25.3468
111 251 252
10.7399 3.02478 25.2967
107 253 253
10.7792 3.03078 25.3468
107 253 253
10.8082 3.01881 25.2467
128 255 255
10.844 3.01881 25.2467
141 255 254
10.8619 3.01881 25.2467
145 255 255
10.9014 3.02478 25.2967
149 255 255
10.9619 3.00694 25.1474
141 255 255
10.9582 3.00104 25.0981
144 255 255
11.0255 2.99516 25.0489
152 254 255
11.0649 3.00104 25.0981
150 255 255
11.0179 2.98347 24.9512
152 255 255
11.0571 2.98931 25
152 255 255
9.60801 3.739 31.4563
127 255 255
9.88571 3.78555 31.8479
109 255 254
9.93303 3.795 31.9274
135 255 255
9.95567 3.795 31.9274
152 255 255
10.0033 3.8045 32.0073
147 251 250
10.2161 3.83328 32.2495
117 255 255
10.239 3.83328 32.2495
143 255 255
10.2878 3.84297 32.331
153 255 255
10.3566 3.84297 32.331
152 255 255
10.5244 3.8625 32.4953
131 254 252
10.5743 3.87234 32.5781
136 255 254
10.6708 3.88222 32.6613
154 255 254
10.7213 3.89216 32.7449
161 255 255
10.7171 3.88222 32.6613
163 255 255
10.7678 3.89216 32.7449
155 255 255
11.4495 3.98397 33.5172
35 138 215
11.5034 3.99443 33.6053
38 138 214
11.431 3.95289 33.2558
44 147 226
11.4844 3.96319 33.3424
49 151 235
11.4483 3.94264 33.1695
49 155 241
11.5017 3.95289 33.2558
48 158 243
11.5553 3.96319 33.3424
48 158 243
11.4829 3.92229 32.9983
60 185 251
11.536 3.93244 33.0837
73 200 251
11.6365 3.94264 33.1695
137 255 255
11.6533 3.93244 33.0837
149 255 253
11.707 3.94264 33.1695
150 255 251
11.5971 3.88222 32.6613
154 254 255
11.7779 3.84297 32.331
137 255 255
11.5894 3.76679 31.6901
125 255 255
11.6407 3.77615 31.7688
115 253 253
11.5201 3.72982 31.3791
112 255 253
11.0708 3.5637 29.9815
124 255 255
11.1181 3.57207 30.0519
132 255 255
11.0357 3.53881 29.7721
142 255 255
11.0826 3.54706 29.8416
147 255 255
11.1038 3.54706 29.8416
150 255 255
11.1509 3.55536 29.9113
150 255 255
10.9878 3.49006 29.362
145 255 254
11.0339 3.49809 29.4295
140 254 254
11.0548 3.49809 29.4295
137 253 252
11.1012 3.50616 29.4974
136 254 254
10.9953 3.46619 29.1611
137 255 255
11.0322 3.4583 29.0948
136 255 255
11.078 3.46619 29.1611
132 254 255
11.0734 3.4583 29.0948
125 255 255
10.9447 3.41174 28.703
111 255 255
10.9897 3.41941 28.7676
104 254 255
10.9854 3.41174 28.703
103 253 254
10.8836 3.37388 28.3845
113 253 254
10.3633 2.96578 24.9512
77 234 243
10.6113 3.00091 25.2467
123 255 255
10.6503 3.00684 25.2967
135 255 255
10.6471 3.00091 25.2467
135 255 255
10.6861 3.00684 25.2967
128 255 255
10.7253 3.0128 25.3468
115 253 253
10.6798 2.995 25.197
105 251 251
10.7187 3.00091 25.2467
102 252 253
10.7579 3.00684 25.2967
102 252 253
10.7334 2.995 25.197
108 254 254
10.7724 3.00091 25.2467
116 255 255
10.8082 3.00091 25.2467
133 255 254
10.8048 2.995 25.197
138 255 255
10.844 3.00091 25.2467
140 255 255
10.8619 3.00091 25.2467
142 255 255
10.9014 3.00684 25.2967
144 255 255
10.8977 3.00091 25.2467
147 255 255
10.9156 3.00091 25.2467
149 255 255
10.8906 2.98911 25.1474
150 254 255
10.9299 2.995 25.197
150 254 255
10.9012 2.9774 25.0489
148 253 255
10.9404 2.98324 25.0981
147 255 255
10.99 2.9774 25.0489
149 254 255
11.0571 2.97158 25
144 255 255
9.56219 3.70757 31.3791
138 255 252
9.60801 3.71669 31.4563
124 255 255
9.93303 3.77236 31.9274
139 255 255
9.95567 3.77236 31.9274
152 255 255
10.0033 3.7818 32.0073
144 254 253
10.2161 3.81041 32.2495
123 255 255
10.239 3.81041 32.2495
147 255 255
10.2878 3.82004 32.331
157 255 255
10.5244 3.83946 32.4953
140 252 253
10.6708 3.85907 32.6613
153 255 255
10.7213 3.86895 32.7449
153 255 255
10.7171 3.85907 32.6613
148 255 255
10.8098 3.85907 32.6613
82 251 254
11.1896 3.91912 33.1695
76 189 249
11.553 3.89889 32.9983
134 255 255
11.6064 3.90898 33.0837
145 255 255
11.6533 3.90898 33.0837
151 255 252
11.707 3.91912 33.1695
151 255 254
11.7388 3.82973 32.4129
148 254 252
11.7917 3.83946 32.4953
145 255 255
11.6407 3.75362 31.7688
114 254 253
11.5201 3.70757 31.3791
112 255 253
11.0968 3.55076 30.0519
131 255 255
11.1443 3.55912 30.1227
136 255 255
11.0357 3.5177 29.7721
143 255 255
11.0826 3.52591 29.8416
147 255 255
11.1038 3.52591 29.8416
150 255 255
11.1509 3.53415 29.9113
150 255 255
11.013 3.47723 29.4295
146 255 255
11.0594 3.48525 29.4974
143 255 255
10.9703 3.43767 29.0948
144 255 255
11.0322 3.43767 29.0948
144 255 255
11.078 3.44551 29.1611
139 255 255
11.0734 3.43767 29.0948
131 255 255
10.9447 3.39138 28.703
117 255 255
10.9897 3.39901 28.7676
108 254 254
10.9854 3.39138 28.703
108 254 254
10.9078 3.36121 28.4476
118 253 255
10.9239 3.35375 28.3845
156 254 255
10.3633 2.94809 24.9512
77 234 243
10.5726 2.97713 25.197
84 228 254
10.6113 2.98301 25.2467
99 238 255
10.6262 2.97713 25.197
123 255 255
10.665 2.98301 25.2467
122 255 255
10.7334 2.97713 25.197
113 255 255
10.7724 2.98301 25.2467
122 255 255
10.8619 2.98301 25.2467
133 255 253
10.8584 2.97713 25.197
138 255 253
10.8977 2.98301 25.2467
146 255 255
10.99 2.95964 25.0489
149 254 255
10.9862 2.95385 25
145 255 254
11.0255 2.95964 25.0489
140 254 254
11.0002 2.94809 24.9512
136 255 255
11.0394 2.95385 25
136 255 255
11.0788 2.95964 25.0489
133 255 255
9.4722 3.6763 31.3023
90 243 255
9.51769 3.68532 31.3791
119 254 255
9.56219 3.68532 31.3791
140 255 253
9.60801 3.69439 31.4563
125 255 255
9.95567 3.74972 31.9274
153 255 255
10.239 3.78755 32.2495
149 255 255
10.2878 3.79712 32.331
159 255 255
10.5974 3.82614 32.5781
153 255 255
10.6477 3.83591 32.6613
152 255 255
10.7213 3.84573 32.7449
139 255 255
10.7171 3.83591 32.6613
126 255 255
10.6857 3.81642 32.4953
112 255 255
10.9071 3.84573 32.7449
105 255 253
11.1372 3.88552 33.0837
142 251 255
11.1607 3.88552 33.0837
115 229 255
11.2132 3.8956 33.1695
83 204 249
11.2659 3.90573 33.2558
55 180 238
11.553 3.8755 32.9983
139 255 255
11.6064 3.88552 33.0837
147 255 254
11.5998 3.8755 32.9983
152 255 255
11.6533 3.88552 33.0837
154 255 255
11.6101 3.8556 32.8289
150 255 255
11.6633 3.86552 32.9134
148 255 255
11.7091 3.79712 32.331
150 254 255
11.7618 3.80674 32.4129
145 255 255
11.6958 3.77802 32.1684
139 255 255
11.5444 3.72185 31.6901
131 255 255
11.5894 3.72185 31.6901
115 253 253
11.6407 3.7311 31.7688
114 254 253
11.0968 3.52945 30.0519
136 255 255
11.0357 3.49659 29.7721
144 254 253
11.0826 3.50475 29.8416
146 255 252
11.1249 3.50475 29.8416
149 255 253
11.013 3.45636 29.4295
148 255 254
11.0594 3.46433 29.4974
146 255 255
10.9703 3.41704 29.0948
149 255 255
10.9909 3.41704 29.0948
152 255 255
11.0367 3.42484 29.1611
152 255 255
11.0322 3.41704 29.0948
151 255 255
10.8595 3.32624 28.3216
121 253 255
10.3987 2.9304 24.9512
99 235 249
10.4367 2.93613 25
82 227 248
10.4749 2.94188 25.0489
68 217 247
10.5874 2.95345 25.1474
85 234 255
10.7334 2.95927 25.197
123 255 253
10.7869 2.95927 25.197
132 255 253
10.8048 2.95927 25.197
128 254 251
10.8619 2.96511 25.2467
126 255 251
10.8584 2.95927 25.197
132 255 252
10.8727 2.95345 25.1474
151 255 255
10.912 2.95927 25.197
151 255 255
10.9367 2.94188 25.0489
154 255 254
10.99 2.94188 25.0489
149 255 253
10.9862 2.93613 25
145 255 254
11.0255 2.94188 25.0489
140 254 254
9.4722 3.65411 31.3023
97 249 255
9.51769 3.66308 31.3791
124 255 255
9.56219 3.66308 31.3791
145 255 255
9.60801 3.67209 31.4563
128 255 255
9.83863 3.70857 31.7688
97 255 255
9.88571 3.71781 31.8479
134 255 255
9.90829 3.71781 31.8479
154 255 255
9.95567 3.72709 31.9274
155 255 255
10.0033 3.73641 32.0073
143 255 255
10.239 3.76468 32.2495
149 255 255
10.2878 3.7742 32.331
159 255 255
10.5244 3.79338 32.4953
145 255 255
10.5743 3.80304 32.5781
154 255 255
10.5974 3.80304 32.5781
158 255 255
10.6477 3.81275 32.6613
153 255 255
10.7213 3.82251 32.7449
124 254 252
10.7171 3.81275 32.6613
104 255 250
10.9584 3.83232 32.8289
132 255 249
11.0099 3.84219 32.9134
132 255 249
11.0617 3.8521 32.9983
147 255 252
11.1085 3.8521 32.9983
153 255 255
11.1607 3.86206 33.0837
139 254 255
